ncols        227
nrows        23
xllcorner    623062
yllcorner    5126878
cellsize     30.000000000000
NODATA_value  -9999
2623.73291015625 2601.363037109375 2578.31298828125 2555.552978515625 2537.363037109375 2520.462890625 2510.323974609375 2497.804931640625 2490.095947265625 2485.548095703125 2472.618896484375 2456.06005859375 2441.12109375 2427.511962890625 2405.512939453125 2375.135009765625 2345.176025390625 2325.987060546875 2306.91796875 2285.68896484375 2270.070068359375 2258.051025390625 2250.362060546875 2244.693115234375 2234.27392578125 2220.49609375 2204.576904296875 2191.528076171875 2179.64892578125 2166.780029296875 2151.970947265625 2137.741943359375 2121.0830078125 2103.833984375 2088.195068359375 2072.52587890625 2057.867919921875 2043.5489501953125 2031.010009765625 2019.31103515625 2009.9820556640625 2002.9630126953125 1995.2039794921875 1987.1949462890625 1982.385986328125 1976.7769775390625 1971.39794921875 1965.719970703125 1961.3709716796875 1959.052001953125 1967.7530517578125 1976.553955078125 1980.864990234375 1987.8759765625 1994.20703125 2001.5379638671875 2017.2490234375 2024.93994140625 2032.531982421875 2042.3330078125 2052.614013671875 2065.68505859375 2070.845947265625 2073.01708984375 2058.887939453125 2047.93896484375 2039.0899658203125 2048.5810546875 2071.39208984375 2088.863037109375 2113.694091796875 2133.555908203125 2147.677001953125 2159.85791015625 2171.868896484375 2183.25 2191.60107421875 2188.882080078125 2198.39306640625 2203.6240234375 2202.27490234375 2211.946044921875 2223.507080078125 2219.0380859375 2199.510009765625 2180.1708984375 2162.862060546875 2145.7529296875 2122.35400390625 2100.77490234375 2081.756103515625 2076.68701171875 2066.62890625 2062.0400390625 2070.041015625 2077.54296875 2092.513916015625 2103.6650390625 2110.826904296875 2110.637939453125 2125.75 2135.821044921875 2144.83203125 2153.154052734375 2160.625 2165.866943359375 2166.41796875 2163.708984375 2167.56103515625 2171.5419921875 2170.573974609375 2166.705078125 2156.635986328125 2140.22802734375 2125.2490234375 2106.65087890625 2082.2919921875 2061.79296875 2041.0250244140625 2019.885986328125 1998.95703125 1979.0889892578125 1958.06005859375 1939.9820556640625 1918.262939453125 1893.2239990234375 1875.10595703125 1873.43701171875 1877.4189453125 1890.010009765625 1898.6610107421875 1905.9830322265625 1916.3740234375 1924.635986328125 1932.406982421875 1935.5980224609375 1934.3199462890625 1927.4110107421875 1918.012939453125 1908.14404296875 1902.18505859375 1900.237060546875 1899.8580322265625 1896.958984375 1893.6309814453125 1884.741943359375 1875.303955078125 1862.2550048828125 1843.9659423828125 1826.988037109375 1809.4990234375 1788.27099609375 1767.741943359375 1741.9329833984375 1727.4150390625 1729.885986328125 1729.89794921875 1715.8089599609375 1702.3499755859375 1693.802001953125 1683.6629638671875 1666.06396484375 1641.5860595703125 1623.8470458984375 1602.8189697265625 1588.9100341796875 1575.7509765625 1565.06298828125 1551.2340087890625 1538.9659423828125 1523.7569580078125 1510.18798828125 1497.5 1485.23095703125 1476.2230224609375 1464.6639404296875 1453.4849853515625 1440.5660400390625 1419.616943359375 1403.8070068359375 1396.93798828125 1392.3690185546875 1384.01904296875 1373.199951171875 1359.0009765625 1346.3310546875 1337.031982421875 1328.4730224609375 1319.7230224609375 1311.4639892578125 1299.2039794921875 1289.4949951171875 1276.7259521484375 1266.0260009765625 1253.64697265625 1250.7779541015625 1243.3079833984375 1239.708984375 1231.0799560546875 1222.1600341796875 1213.281005859375 1206.1419677734375 1199.322021484375 1199.54296875 1196.822998046875 1194.073974609375 1190.39501953125 1186.905029296875 1186.68603515625 1186.0269775390625 1184.95703125 1183.458984375 1183.779052734375 1183.43896484375 1183.3599853515625 1182.4310302734375 1182.2010498046875 1181.58203125 1182.2430419921875 1181.843017578125 1181.7640380859375 1184.364013671875 1195.074951171875 1207.406005859375 1212.68603515625 1216.3570556640625 1218.5780029296875
2628.1640625 2598.783935546875 2572.424072265625 2550.31396484375 2531.14404296875 2514.39404296875 2502.9150390625 2494.035888671875 2487.306884765625 2476.93798828125 2461.26904296875 2438.550048828125 2418.781005859375 2410.383056640625 2381.884033203125 2356.89501953125 2336.2958984375 2316.60693359375 2302.4580078125 2295.2900390625 2283.220947265625 2264.33203125 2256.5830078125 2253.573974609375 2246.885009765625 2235.8359375 2215.576904296875 2201.117919921875 2189.0791015625 2175.4599609375 2160.720947265625 2145.593017578125 2128.053955078125 2110.824951171875 2095.47607421875 2078.447021484375 2062.597900390625 2048.72900390625 2035.7099609375 2024.2110595703125 2017.6319580078125 2010.093017578125 2001.614013671875 1994.0760498046875 1987.697021484375 1982.218017578125 1977.5989990234375 1969.3900146484375 1961.970947265625 1951.9620361328125 1950.9930419921875 1955.56396484375 1960.60498046875 1970.666015625 1979.5369873046875 1983.5980224609375 1993.93994140625 2001.31103515625 2010.112060546875 2019.4630126953125 2029.14404296875 2038.614990234375 2048.506103515625 2049.346923828125 2037.508056640625 2026.8289794921875 2023.27001953125 2039.06103515625 2061.701904296875 2083.903076171875 2106.485107421875 2121.055908203125 2132.26708984375 2144.8779296875 2157.68896484375 2168.6298828125 2173.430908203125 2169.1220703125 2178.782958984375 2175.323974609375 2179.2451171875 2190.365966796875 2210.056884765625 2205.087890625 2191.299072265625 2172.7109375 2150.2919921875 2131.693115234375 2113.9140625 2093.945068359375 2072.3759765625 2057.9169921875 2047.5379638671875 2046.4000244140625 2052.2109375 2062.472900390625 2077.533935546875 2085.715087890625 2089.096923828125 2094.867919921875 2106.47998046875 2115.910888671875 2124.931884765625 2131.763916015625 2140.4951171875 2146.2060546875 2146.8779296875 2141.97900390625 2149.281005859375 2154.592041015625 2156.282958984375 2156.304931640625 2151.716064453125 2142.41796875 2128.759033203125 2110.10009765625 2086.721923828125 2066.8330078125 2042.1650390625 2020.446044921875 2000.487060546875 1980.7889404296875 1960.260009765625 1938.0419921875 1912.883056640625 1891.7039794921875 1881.3060302734375 1861.947021484375 1859.677978515625 1876.7900390625 1881.8709716796875 1889.7430419921875 1899.333984375 1908.0050048828125 1914.947021484375 1921.0279541015625 1919.6800537109375 1916.301025390625 1906.08203125 1896.553955078125 1887.0250244140625 1884.89697265625 1886.0679931640625 1886.6590576171875 1883.3310546875 1876.7919921875 1865.123046875 1855.9949951171875 1845.0660400390625 1827.248046875 1808.5589599609375 1789.530029296875 1765.6319580078125 1744.85302734375 1726.074951171875 1708.43603515625 1709.8470458984375 1700.93896484375 1685.6400146484375 1671.2320556640625 1657.27294921875 1637.64404296875 1622.4959716796875 1606.987060546875 1589.697998046875 1573.469970703125 1560.531005859375 1549.1629638671875 1537.1639404296875 1521.5150146484375 1504.737060546875 1489.988037109375 1477.6800537109375 1467.0909423828125 1459.7320556640625 1453.5140380859375 1440.7249755859375 1427.3160400390625 1417.68701171875 1399.97705078125 1381.3179931640625 1374.258056640625 1369.8890380859375 1360.9000244140625 1347.1099853515625 1334.4410400390625 1321.1419677734375 1317.092041015625 1310.1629638671875 1294.634033203125 1285.333984375 1278.2249755859375 1265.3060302734375 1249.1259765625 1242.0970458984375 1242.91796875 1238.66796875 1233.6090087890625 1228.1590576171875 1218.97998046875 1211.4210205078125 1204.541015625 1199.6920166015625 1196.9229736328125 1195.54296875 1189.1639404296875 1187.7650146484375 1187.405029296875 1186.93603515625 1186.5269775390625 1186.126953125 1185.3480224609375 1183.458984375 1183.6090087890625 1183.3299560546875 1182.81103515625 1182.571044921875 1183.1619873046875 1183.1929931640625 1182.1829833984375 1188.1839599609375 1198.1939697265625 1208.9749755859375 1217.196044921875 1226.0260009765625 1229.6669921875 1234.41796875
2626.1650390625 2602.324951171875 2573.2451171875 2552.635009765625 2534.074951171875 2517.195068359375 2504.385986328125 2496.967041015625 2479.60791015625 2463.76904296875 2447.02001953125 2429.881103515625 2411.48193359375 2393.93310546875 2366.235107421875 2348.22607421875 2330.89697265625 2320.468017578125 2313.59912109375 2308.820068359375 2292.60107421875 2272.281982421875 2265.373046875 2258.89404296875 2252.465087890625 2239.70703125 2224.048095703125 2212.1689453125 2198.820068359375 2184.031005859375 2167.89208984375 2151.43310546875 2134.27392578125 2116.965087890625 2099.68603515625 2083.257080078125 2068.157958984375 2054.3291015625 2042.0009765625 2031.862060546875 2025.3330078125 2017.053955078125 2008.8050537109375 2001.7659912109375 1995.656982421875 1988.1180419921875 1980.6390380859375 1975.0999755859375 1967.6910400390625 1955.092041015625 1944.343017578125 1942.9539794921875 1949.2149658203125 1957.8470458984375 1965.22802734375 1967.2889404296875 1974.52001953125 1982.490966796875 1990.1820068359375 1999.6529541015625 2008.2039794921875 2016.594970703125 2022.926025390625 2026.20703125 2018.2779541015625 2008.4990234375 2009.02001953125 2030.9210205078125 2055.282958984375 2076.35400390625 2087.955078125 2101.97607421875 2114.116943359375 2128.157958984375 2141.39892578125 2149.06005859375 2150.990966796875 2149.632080078125 2156.31298828125 2151.364013671875 2158.574951171875 2174.10595703125 2186.31689453125 2190.758056640625 2177.279052734375 2159.679931640625 2142.2919921875 2124.73291015625 2104.513916015625 2083.955078125 2066.666015625 2045.0970458984375 2034.1180419921875 2032.489990234375 2036.821044921875 2047.532958984375 2058.73388671875 2066.81494140625 2066.06689453125 2077.798095703125 2086.97900390625 2096.281005859375 2103.842041015625 2112.033935546875 2121.844970703125 2127.716064453125 2127.468017578125 2121.239013671875 2130.98095703125 2136.19189453125 2138.282958984375 2139.125 2136.18603515625 2129.2470703125 2125.089111328125 2103 2082.2119140625 2061.52294921875 2039.2239990234375 2019.176025390625 2000.7869873046875 1978.448974609375 1959.1600341796875 1937.5909423828125 1911.81298828125 1895.614013671875 1878.0360107421875 1855.5670166015625 1845.7979736328125 1857.27001953125 1868.5009765625 1877.2919921875 1884.6939697265625 1893.405029296875 1901.677001953125 1907.5780029296875 1906.6490478515625 1905.48095703125 1894.52197265625 1882.2239990234375 1873.4449462890625 1868.5660400390625 1873.72802734375 1874.8590087890625 1870.3609619140625 1863.4720458984375 1855.9530029296875 1849.0150146484375 1840.0460205078125 1828.0670166015625 1810.5689697265625 1790.8199462890625 1769.991943359375 1752.762939453125 1734.614013671875 1711.4859619140625 1687.616943359375 1677.5389404296875 1665.81005859375 1656.9610595703125 1642.012939453125 1626.1639404296875 1610.2249755859375 1595.386962890625 1577.5980224609375 1560.6600341796875 1546.56103515625 1533.491943359375 1522.5240478515625 1510.68505859375 1496.386962890625 1478.8580322265625 1463.51904296875 1452.740966796875 1445.6519775390625 1438.303955078125 1424.405029296875 1409.926025390625 1400.60595703125 1391.14697265625 1370.3280029296875 1354.7979736328125 1351.279052734375 1346.7900390625 1334.030029296875 1324.1009521484375 1308.4320068359375 1295.001953125 1285.7430419921875 1277.4840087890625 1270.134033203125 1254.625 1245.85498046875 1235.0560302734375 1234.447021484375 1236.0369873046875 1231.8380126953125 1227.239013671875 1223.678955078125 1217.9200439453125 1210.531005859375 1203.6610107421875 1198.9219970703125 1197.54296875 1191.532958984375 1189.4139404296875 1188.094970703125 1187.614990234375 1186.9759521484375 1186.3570556640625 1185.5970458984375 1185.47802734375 1184.428955078125 1184.759033203125 1183.239990234375 1184.52099609375 1184.2110595703125 1184.241943359375 1183.112060546875 1186.10302734375 1199.2840576171875 1206.06396484375 1217.324951171875 1228.8260498046875 1239.3260498046875 1246.5369873046875 1256.91796875
2647.625 2610.965087890625 2587.4150390625 2560.864990234375 2541.574951171875 2519.735107421875 2503.916015625 2489.81689453125 2468.2080078125 2447.969970703125 2433.37109375 2417.531982421875 2406.032958984375 2394.98388671875 2362.705078125 2343.865966796875 2337.876953125 2329.319091796875 2318.7900390625 2317.680908203125 2297.902099609375 2282.4130859375 2277.35400390625 2265.445068359375 2257.156005859375 2247.47705078125 2237.387939453125 2223.759033203125 2207.81005859375 2190.4609375 2172.3720703125 2154.383056640625 2136.6650390625 2119.156005859375 2102.31689453125 2087.867919921875 2072.72900390625 2059.47998046875 2048.9208984375 2041.7919921875 2034.883056640625 2024.6639404296875 2016.2049560546875 2009.3360595703125 2001.0269775390625 1993.93798828125 1985.958984375 1975.010009765625 1967.822021484375 1956.5030517578125 1946.303955078125 1939.635009765625 1936.426025390625 1943.89697265625 1950.0980224609375 1952.1090087890625 1958.199951171875 1960.6910400390625 1967.9820556640625 1978.7430419921875 1986.9539794921875 1994.614990234375 2000.0360107421875 2004.5369873046875 1999.008056640625 1992.6390380859375 2002.1409912109375 2026.072021484375 2047.012939453125 2055.73388671875 2067.824951171875 2076.49609375 2095.076904296875 2112.637939453125 2123.928955078125 2122.610107421875 2126.930908203125 2128.741943359375 2134.04296875 2128.27392578125 2142.614990234375 2152.89599609375 2166.70703125 2169.72802734375 2168.87890625 2147.68994140625 2129.37109375 2110.862060546875 2094.9541015625 2077.675048828125 2056.56591796875 2037.126953125 2022.3480224609375 2017.7099609375 2019.52099609375 2029.6219482421875 2041.14404296875 2048.044921875 2046.0660400390625 2059.60791015625 2067.6689453125 2076.930908203125 2085.7919921875 2093.212890625 2102.534912109375 2109.39599609375 2106.758056640625 2102.158935546875 2111.35009765625 2117.35205078125 2121.633056640625 2123.905029296875 2124.7060546875 2122.556884765625 2114.62890625 2102.3701171875 2084.39111328125 2062.35302734375 2041.303955078125 2020.5360107421875 2000.156982421875 1982.3680419921875 1962.489990234375 1943.510986328125 1922.0830078125 1902.7340087890625 1878.2950439453125 1855.5670166015625 1832.7979736328125 1841.280029296875 1854.8310546875 1863.83203125 1871.9139404296875 1878.2650146484375 1886.8160400390625 1892.8680419921875 1896.1390380859375 1894.52099609375 1883.77197265625 1875.3929443359375 1861.7950439453125 1855.406005859375 1859.89794921875 1861.759033203125 1857.949951171875 1850.35205078125 1844.373046875 1838.364990234375 1828.166015625 1816.0269775390625 1803.6590576171875 1787.239990234375 1771.3709716796875 1752.1629638671875 1738.884033203125 1722.426025390625 1702.39697265625 1688.39794921875 1670.719970703125 1644.240966796875 1623.052978515625 1611.593994140625 1593.864990234375 1582.18701171875 1566.0780029296875 1551.8389892578125 1534.1610107421875 1518.6820068359375 1507.614013671875 1497.14501953125 1486.93603515625 1476.387939453125 1455.218994140625 1439.81103515625 1427.06201171875 1416.2430419921875 1406.35498046875 1394.7950439453125 1383.2359619140625 1375.626953125 1363.2569580078125 1347.508056640625 1330.1490478515625 1323.2889404296875 1313.2900390625 1303.9210205078125 1292.73095703125 1279.802001953125 1272.56298828125 1259.52294921875 1247.35400390625 1238.2149658203125 1228.0150146484375 1224.7159423828125 1226.656982421875 1230.2569580078125 1227.8580322265625 1221.01904296875 1216.0789794921875 1213.9100341796875 1208.5909423828125 1204.06103515625 1199.58203125 1194.9930419921875 1190.843017578125 1187.7840576171875 1187.5450439453125 1187.7750244140625 1187.385986328125 1185.5970458984375 1186.156982421875 1185.5679931640625 1185.0880126953125 1184.7490234375 1185.3199462890625 1185.1600341796875 1184.3310546875 1187.02197265625 1193.342041015625 1205.1529541015625 1215.4139404296875 1221.634033203125 1230.0550537109375 1240.0760498046875 1251.1259765625 1261.386962890625 1274.5780029296875
2664.2958984375 2628.916015625 2602.2060546875 2584.72607421875 2549.666015625 2523.865966796875 2504.507080078125 2484.867919921875 2459.30908203125 2441.070068359375 2425.60107421875 2417.422119140625 2407.212890625 2389.48388671875 2362.236083984375 2349.537109375 2338.528076171875 2332.029052734375 2329.050048828125 2326.85107421875 2313.931884765625 2301.722900390625 2294.47412109375 2286.125 2274.156982421875 2263.64794921875 2250.7890625 2233.4599609375 2215.321044921875 2195.73193359375 2176.23291015625 2157.6640625 2139.534912109375 2122.115966796875 2106.47705078125 2092.498046875 2080.64892578125 2067.8701171875 2060.02099609375 2052.201904296875 2042.2530517578125 2034.134033203125 2023.4759521484375 2015.4969482421875 2006.3179931640625 1997.218994140625 1988.8199462890625 1980.4310302734375 1974.5419921875 1961.1929931640625 1946.333984375 1939.364990234375 1935.9959716796875 1931.366943359375 1938.137939453125 1938.5389404296875 1940.6700439453125 1940.470947265625 1948.4119873046875 1956.623046875 1967.2340087890625 1974.0350341796875 1977.426025390625 1981.22705078125 1977.3890380859375 1975.8599853515625 1996.98095703125 2016.612060546875 2026.4730224609375 2034.81396484375 2045.7650146484375 2055.946044921875 2077.51708984375 2088.22802734375 2104.72900390625 2099.159912109375 2103.220947265625 2108.58203125 2108.93310546875 2107.364013671875 2121.485107421875 2135.595947265625 2145.22705078125 2147.927978515625 2154.239013671875 2145.030029296875 2123.2509765625 2102.912109375 2082.282958984375 2064.573974609375 2046.615966796875 2026.4169921875 2009.5279541015625 2003.9000244140625 2001.8909912109375 2011.4019775390625 2022.833984375 2030.2950439453125 2030.9759521484375 2039.9580078125 2050.339111328125 2060.970947265625 2069.221923828125 2075.403076171875 2086.284912109375 2093.785888671875 2086.777099609375 2082.888916015625 2091.580078125 2098.092041015625 2104.552978515625 2108.823974609375 2110.60595703125 2110.60693359375 2106.09912109375 2096.8798828125 2082.19091796875 2064.363037109375 2044.9339599609375 2023.114990234375 2001.947021484375 1980.748046875 1958.989990234375 1936.791015625 1917.001953125 1898.083984375 1877.7349853515625 1852.876953125 1831.3580322265625 1820.708984375 1835.791015625 1846.2320556640625 1853.2440185546875 1867.574951171875 1872.3260498046875 1878.748046875 1884.8890380859375 1880.81005859375 1873.7320556640625 1864.532958984375 1856.0450439453125 1844.6259765625 1846.95703125 1848.0889892578125 1844.8800048828125 1838.802001953125 1834.2230224609375 1827.5340576171875 1814.8160400390625 1802.5670166015625 1791.008056640625 1777.5699462890625 1764.1109619140625 1749.572998046875 1730.14404296875 1713.6650390625 1695.22705078125 1680.3179931640625 1666.530029296875 1646.6309814453125 1627.1920166015625 1603.9739990234375 1569.344970703125 1550.8070068359375 1543.93798828125 1540.4189453125 1527.6409912109375 1509.9620361328125 1491.79296875 1481.9849853515625 1472.2760009765625 1464.7080078125 1453.708984375 1434.9100341796875 1418.6519775390625 1403.6729736328125 1388.4949951171875 1376.5550537109375 1368.2060546875 1359.2769775390625 1354.636962890625 1342.8380126953125 1326.8790283203125 1306.0689697265625 1296.469970703125 1286.8909912109375 1275.1510009765625 1265.60205078125 1250.4930419921875 1243.1629638671875 1233.9339599609375 1223.56494140625 1216.364990234375 1217.9859619140625 1220.697021484375 1224.7969970703125 1223.177978515625 1218.3890380859375 1212.1190185546875 1206.4200439453125 1204.1209716796875 1200.3509521484375 1196.77197265625 1193.2220458984375 1189.012939453125 1189.114013671875 1187.39404296875 1187.385986328125 1187.5059814453125 1186.865966796875 1186.217041015625 1186.8079833984375 1186.5780029296875 1186.5789794921875 1185.969970703125 1187.6600341796875 1191.9410400390625 1203.511962890625 1211.6619873046875 1221.1629638671875 1231.884033203125 1237.9439697265625 1251.0250244140625 1258.0860595703125 1263.906005859375 1275.0469970703125 1285.887939453125
2638.45703125 2642.697021484375 2623.6669921875 2580.35693359375 2558.9970703125 2540.126953125 2505.05810546875 2477.218994140625 2451.090087890625 2433.450927734375 2421.302001953125 2415.532958984375 2398.27392578125 2378.9951171875 2358.95703125 2355.818115234375 2350.76904296875 2345.0400390625 2342.89111328125 2343.501953125 2333.18310546875 2323.52392578125 2317.445068359375 2315.2958984375 2291.576904296875 2279.337890625 2261.35888671875 2242.840087890625 2221.091064453125 2199.592041015625 2178.27294921875 2163.323974609375 2146.9951171875 2129.805908203125 2112.617919921875 2099.569091796875 2088.820068359375 2079.5810546875 2071.4619140625 2061.173095703125 2051.9140625 2040.2349853515625 2030.0660400390625 2019.0670166015625 2009.5980224609375 1999.01904296875 1989.280029296875 1981.220947265625 1974.592041015625 1962.0030517578125 1949.6939697265625 1938.324951171875 1933.5059814453125 1926.5069580078125 1927.3780517578125 1925.239013671875 1923.8599853515625 1922.8509521484375 1927.3819580078125 1938.31396484375 1947.9649658203125 1952.7860107421875 1956.906982421875 1959.488037109375 1960.47900390625 1969.8399658203125 1987.2110595703125 1998.342041015625 2005.113037109375 2015.073974609375 2023.074951171875 2039.446044921875 2050.43701171875 2064.907958984375 2073.819091796875 2077.7099609375 2077.1708984375 2084.48193359375 2083.43310546875 2091.27392578125 2105.625 2114.02587890625 2122.31689453125 2125.447998046875 2129.4990234375 2129.22998046875 2117.680908203125 2098.241943359375 2078.5029296875 2058.654052734375 2037.7249755859375 2018.93701171875 1998.8780517578125 1990.489013671875 1986.48095703125 1993.1319580078125 2006.89404296875 2011.574951171875 2013.8160400390625 2022.5179443359375 2036.0789794921875 2043.800048828125 2052.322021484375 2060.79296875 2071.5849609375 2077.01611328125 2067.826904296875 2064.118896484375 2072.22998046875 2079.301025390625 2085.923095703125 2090.823974609375 2095.156005859375 2095.93701171875 2092.7080078125 2086.75 2075.9609375 2058.572998046875 2037.083984375 2016.594970703125 1997.14697265625 1977.488037109375 1955.5 1933.3409423828125 1916.1419677734375 1897.9339599609375 1880.06494140625 1854.885986328125 1833.248046875 1808.3089599609375 1815.490966796875 1826.31201171875 1841.552978515625 1854.0150146484375 1860.5360107421875 1865.748046875 1868.698974609375 1867.5699462890625 1862.9420166015625 1856.052978515625 1845.303955078125 1835.7359619140625 1833.47705078125 1833.989013671875 1831.9000244140625 1828.5009765625 1820.9730224609375 1811.6839599609375 1800.8260498046875 1788.487060546875 1775.887939453125 1764.739990234375 1753.6910400390625 1740.85205078125 1720.89404296875 1702.675048828125 1682.5469970703125 1669.22802734375 1652.8289794921875 1637.7110595703125 1617.031982421875 1598.803955078125 1578.7750244140625 1561.5560302734375 1535.0479736328125 1508.6090087890625 1514.7900390625 1500.781982421875 1482.7430419921875 1465.14501953125 1457.0159912109375 1447.2669677734375 1439.5589599609375 1428.5400390625 1414.9019775390625 1395.3330078125 1379.9239501953125 1364.114990234375 1351.5660400390625 1350.156005859375 1338.116943359375 1327.988037109375 1318.1080322265625 1304.468994140625 1284.469970703125 1269.1800537109375 1260.4610595703125 1249.251953125 1235.2919921875 1228.322998046875 1217.823974609375 1210.5040283203125 1210.5450439453125 1213.0460205078125 1214.39599609375 1215.7969970703125 1216.947998046875 1214.498046875 1208.509033203125 1204.31005859375 1201.550048828125 1195.2110595703125 1192.6619873046875 1191.2120361328125 1189.012939453125 1189.114013671875 1189.2440185546875 1189.1949462890625 1188.5560302734375 1188.0260009765625 1187.616943359375 1187.447998046875 1187.1280517578125 1186.489013671875 1194.75 1204.0799560546875 1204.970947265625 1215.592041015625 1226.9219970703125 1239.54296875 1251.3740234375 1254.4639892578125 1265.864990234375 1278.5059814453125 1283.85595703125 1289.72705078125 1299.0679931640625
2611.447998046875 2616.39794921875 2606.51806640625 2580.2080078125 2546.64794921875 2519.47802734375 2494.468017578125 2474.76904296875 2453.179931640625 2432.551025390625 2416.60302734375 2405.02392578125 2394.02490234375 2373.486083984375 2364.47705078125 2361.35791015625 2360.009033203125 2356.830078125 2360.720947265625 2366.221923828125 2355.282958984375 2344.73388671875 2346.735107421875 2325.447021484375 2308.718017578125 2292.80908203125 2279.050048828125 2268.591064453125 2244.501953125 2215.43310546875 2191.97412109375 2173.155029296875 2153.845947265625 2134.826904296875 2121.347900390625 2110.868896484375 2101.050048828125 2090.9208984375 2081.261962890625 2069.5029296875 2056.174072265625 2044.405029296875 2032.9560546875 2021.45703125 2010.177978515625 1998.968994140625 1989.1800537109375 1979.821044921875 1971.7320556640625 1957.6929931640625 1949.0240478515625 1940.2950439453125 1933.35595703125 1926.988037109375 1919.51904296875 1915.3499755859375 1912.5009765625 1909.0419921875 1910.9429931640625 1918.8740234375 1925.6949462890625 1930.9959716796875 1936.7669677734375 1945.0980224609375 1944.428955078125 1953.6600341796875 1968.9210205078125 1977.822021484375 1986.2430419921875 1994.31396484375 2006.0250244140625 2018.0660400390625 2029.7969970703125 2044.758056640625 2045.97900390625 2051.590087890625 2053.44091796875 2060.58203125 2058.23291015625 2073.06396484375 2090.715087890625 2092.35595703125 2098.826904296875 2105.5380859375 2105.819091796875 2104.0400390625 2100.40087890625 2088.001953125 2068.972900390625 2049.864013671875 2031.824951171875 2011.7659912109375 1991.008056640625 1977.3489990234375 1973.52099609375 1976.781982421875 1989.9730224609375 1992.574951171875 1995.0159912109375 2010.5770263671875 2018.739013671875 2027.5 2037.3919677734375 2046.302978515625 2056.093994140625 2061.3359375 2050.507080078125 2047.3890380859375 2052.5 2061.531005859375 2067.14306640625 2071.4140625 2077.72607421875 2081.537109375 2081.91796875 2077.22998046875 2066.9609375 2055.19189453125 2037.0140380859375 2017.2950439453125 1996.9969482421875 1977.3780517578125 1959.3089599609375 1942.52099609375 1928.9620361328125 1910.803955078125 1884.844970703125 1864.7060546875 1841.2979736328125 1817.0389404296875 1794.1500244140625 1806.9620361328125 1820.31298828125 1841.2049560546875 1850.10595703125 1851.2869873046875 1856.509033203125 1856.800048828125 1854.27197265625 1847.7530517578125 1836.073974609375 1822.166015625 1824.386962890625 1821.238037109375 1818.56005859375 1814.5909423828125 1806.6529541015625 1797.2440185546875 1786.56494140625 1773.7769775390625 1761.218017578125 1750.550048828125 1738.2110595703125 1724.241943359375 1708.1240234375 1691.635009765625 1674.3260498046875 1656.41796875 1639.22900390625 1627.4310302734375 1606.741943359375 1589.02294921875 1570.2149658203125 1552.0560302734375 1531.238037109375 1514.3389892578125 1488.81005859375 1488.4420166015625 1474.54296875 1449.7340087890625 1439.68603515625 1433.967041015625 1424.5689697265625 1413.219970703125 1402.9510498046875 1389.4830322265625 1375.333984375 1356.4849853515625 1339.0260009765625 1330.64599609375 1318.126953125 1313.508056640625 1307.2979736328125 1286.76904296875 1271.43994140625 1259.9599609375 1244.260986328125 1236.001953125 1223.4820556640625 1216.2230224609375 1208.634033203125 1206.3740234375 1206.2349853515625 1207.2359619140625 1208.0260009765625 1209.237060546875 1210.64794921875 1204.7679443359375 1201.6190185546875 1200.47998046875 1195.6300048828125 1191.112060546875 1191.322021484375 1189.501953125 1189.6629638671875 1189.7440185546875 1189.2640380859375 1189.14501953125 1188.9759521484375 1188.4759521484375 1187.626953125 1187.5880126953125 1188.68798828125 1199.2889404296875 1211.3599853515625 1218.3900146484375 1225.5909423828125 1234.2220458984375 1239.6719970703125 1251.9429931640625 1267.4139404296875 1272.9439697265625 1276.5150146484375 1295.0460205078125 1303.7760009765625 1308.18701171875 1319.7080078125
2591.5380859375 2598.837890625 2591.8779296875 2564.597900390625 2537.157958984375 2508.488037109375 2487.30908203125 2470.639892578125 2452.5810546875 2430.922119140625 2412.23291015625 2406.513916015625 2398.8349609375 2379.256103515625 2373.177978515625 2374.428955078125 2372.159912109375 2372.87109375 2377.281982421875 2391.212890625 2376.18408203125 2368.97509765625 2359.2060546875 2338.596923828125 2326.238037109375 2317.4990234375 2302.1201171875 2284.111083984375 2252.052001953125 2224.173095703125 2206.52392578125 2177.675048828125 2159.756103515625 2147.697021484375 2135.577880859375 2124.76904296875 2113.889892578125 2102.10107421875 2088.761962890625 2074.903076171875 2059.513916015625 2044.2860107421875 2037.2869873046875 2026.0880126953125 2013.1390380859375 2001.9200439453125 1989.9110107421875 1977.81201171875 1967.072998046875 1957.5340576171875 1949.85498046875 1942.0760498046875 1935.987060546875 1929.887939453125 1924.6689453125 1916.8299560546875 1910.071044921875 1903.9820556640625 1900.552978515625 1902.89404296875 1911.4749755859375 1919.2060546875 1925.467041015625 1931.97802734375 1931.3990478515625 1937.97998046875 1951.321044921875 1959.83203125 1967.9229736328125 1975.9840087890625 1986.375 1997.9659423828125 2009.20703125 2020.637939453125 2023.0389404296875 2029.43994140625 2032.27099609375 2037.4219970703125 2039.9730224609375 2063.194091796875 2068.844970703125 2070.1259765625 2075.51708984375 2087.347900390625 2083.198974609375 2080.260009765625 2077.341064453125 2075.802001953125 2059.48291015625 2040.7239990234375 2022.56494140625 2002.865966796875 1982.8780517578125 1964.3690185546875 1960.52099609375 1957.9320068359375 1968.27294921875 1971.905029296875 1983.18603515625 1997.0269775390625 2001.3790283203125 2011.8399658203125 2021.9520263671875 2031.7530517578125 2040.404052734375 2044.3759765625 2034.14697265625 2029.907958984375 2031.7900390625 2043.8609619140625 2046.9830322265625 2053.4140625 2061.60498046875 2067.39697265625 2067.39794921875 2060.889892578125 2055.450927734375 2047.9219970703125 2034.5439453125 2017.2349853515625 1997.4759521484375 1979.407958984375 1961.3389892578125 1943.8409423828125 1925.7919921875 1904.9830322265625 1886.5550537109375 1868.426025390625 1847.988037109375 1822.26904296875 1793.52001953125 1781.7320556640625 1800.31298828125 1817.35400390625 1838.39599609375 1845.9169921875 1846.279052734375 1845.050048828125 1843.301025390625 1837.4029541015625 1826.9739990234375 1816.2559814453125 1808.9969482421875 1812.0279541015625 1806.4100341796875 1802.281005859375 1793.4720458984375 1782.06396484375 1770.9849853515625 1758.2569580078125 1746.3380126953125 1734.0889892578125 1719.8709716796875 1707.9420166015625 1695.9229736328125 1679.9649658203125 1668.4759521484375 1652.8179931640625 1633.7889404296875 1609.56005859375 1595.281982421875 1578.7330322265625 1559.7550048828125 1539.5760498046875 1516.7669677734375 1497.1490478515625 1479.2900390625 1465.81103515625 1447.02294921875 1434.7939453125 1423.8360595703125 1418.5770263671875 1414.907958984375 1400.02001953125 1389.051025390625 1379.8929443359375 1367.2640380859375 1349.68505859375 1333.56494140625 1313.5660400390625 1303.6070556640625 1293.2669677734375 1282.39794921875 1270.029052734375 1256.948974609375 1242.3599853515625 1231.031005859375 1228.281005859375 1219.741943359375 1210.9229736328125 1205.1639404296875 1203.7840576171875 1202.625 1202.7459716796875 1203.2459716796875 1201.3170166015625 1200.968017578125 1201.3480224609375 1200.678955078125 1197.530029296875 1192.5 1191.112060546875 1191.112060546875 1190.6519775390625 1190.52294921875 1190.073974609375 1189.7740478515625 1189.425048828125 1188.926025390625 1188.416015625 1188.126953125 1187.8380126953125 1199.387939453125 1213.8990478515625 1225.050048828125 1233.1400146484375 1241.8509521484375 1252.761962890625 1255.0419921875 1265.552978515625 1277.0340576171875 1289.9139404296875 1295.135009765625 1303.156005859375 1321.7860107421875 1328.4969482421875 1337.8380126953125
2583.158935546875 2587.76904296875 2568.618896484375 2550.84912109375 2530.05908203125 2499.85888671875 2478.179931640625 2461.281005859375 2445.02197265625 2429.04296875 2421.52392578125 2417.965087890625 2417.325927734375 2394.376953125 2387.887939453125 2391.0390625 2386.840087890625 2384.4208984375 2392.58203125 2408.18310546875 2397.614013671875 2391.406005859375 2369.866943359375 2358.528076171875 2349.589111328125 2339.6201171875 2320.0009765625 2294.031982421875 2268.153076171875 2244.083984375 2227.044921875 2193.666015625 2177.136962890625 2164.0380859375 2149.989013671875 2137.3798828125 2124.990966796875 2113.221923828125 2099.31298828125 2084.00390625 2067.18505859375 2056.14599609375 2048.43701171875 2035.5579833984375 2021.8690185546875 2007.5899658203125 1993.4210205078125 1979.6519775390625 1968.9129638671875 1962.823974609375 1955.094970703125 1947.446044921875 1941.237060546875 1934.447998046875 1928.7490234375 1923.0899658203125 1916.7509765625 1911.4520263671875 1905.863037109375 1893.7440185546875 1899.6650390625 1910.35595703125 1915.5770263671875 1920.907958984375 1920.1689453125 1922.1600341796875 1933.470947265625 1942.1319580078125 1950.1929931640625 1957.9940185546875 1968.125 1978.2159423828125 1989.39697265625 1997.988037109375 2001.8690185546875 2014.5799560546875 2010.31103515625 2010.592041015625 2030.9329833984375 2048.803955078125 2047.0849609375 2047.0860595703125 2053.626953125 2068.2080078125 2061.4990234375 2057.1201171875 2052.990966796875 2055.7919921875 2052.462890625 2034.4639892578125 2016.135009765625 1996.3060302734375 1976.887939453125 1955.8690185546875 1948.030029296875 1944.031982421875 1949.4530029296875 1956.4940185546875 1973.14599609375 1979.8470458984375 1986.47900390625 1997.3399658203125 2006.4110107421875 2015.9530029296875 2024.553955078125 2029.2960205078125 2018.4169921875 2008.498046875 2013.6099853515625 2023.1209716796875 2025.4219970703125 2036.384033203125 2044.9549560546875 2050.547119140625 2051.16796875 2048.62890625 2045.1810302734375 2037.08203125 2030.833984375 2011.2950439453125 1992.85595703125 1975.6080322265625 1956.698974609375 1937.5999755859375 1918.241943359375 1900.262939453125 1883.39501953125 1861.5460205078125 1841.89697265625 1820.9990234375 1794.030029296875 1773.491943359375 1778.873046875 1798.0439453125 1815.7359619140625 1840.7869873046875 1838.8079833984375 1838.43994140625 1834.1710205078125 1828.27294921875 1812.85400390625 1802.905029296875 1794.717041015625 1807.2879638671875 1801.01904296875 1785.3409423828125 1780.822021484375 1768.1939697265625 1755.4849853515625 1743.5560302734375 1731.008056640625 1719.708984375 1707.0810546875 1693.3919677734375 1680.6429443359375 1670.5350341796875 1656.3360595703125 1640.0469970703125 1624.739013671875 1603.31005859375 1583.58203125 1561.56298828125 1545.8740234375 1525.3759765625 1504.0870361328125 1489.218994140625 1474.77001953125 1457.5009765625 1444.282958984375 1424.9339599609375 1402.364990234375 1401.7569580078125 1395.5379638671875 1390.6400146484375 1378.8509521484375 1367.27197265625 1352.404052734375 1335.7550048828125 1318.93505859375 1304.10595703125 1287.5570068359375 1277.5970458984375 1267.8280029296875 1257.968994140625 1242.01904296875 1228.3599853515625 1221.6610107421875 1219.48095703125 1215.842041015625 1209.873046875 1205.27294921875 1202.5240478515625 1200.635009765625 1200.905029296875 1199.35595703125 1195.72705078125 1196.116943359375 1197.748046875 1193.76904296875 1193.489013671875 1191.3199462890625 1192.0009765625 1191.6610107421875 1191.0419921875 1190.8929443359375 1190.322998046875 1190.0439453125 1189.324951171875 1188.64599609375 1188.385986328125 1190.5570068359375 1199.72802734375 1213.907958984375 1226.8990478515625 1237.8499755859375 1247.5699462890625 1255.8609619140625 1267.52197265625 1274.3719482421875 1283.5030517578125 1292.4239501953125 1305.9639892578125 1313.4749755859375 1321.2159423828125 1329.9560546875 1348.386962890625 1354.2080078125
2587.860107421875 2592.43994140625 2572.080078125 2550.02001953125 2514.10009765625 2493.800048828125 2474.070068359375 2456.65087890625 2441.132080078125 2428.77294921875 2422.114990234375 2420.115966796875 2414.967041015625 2406.177978515625 2403.029052734375 2399.239990234375 2396.031005859375 2399.31201171875 2405.452880859375 2425.39404296875 2419.635009765625 2406.01611328125 2388.9970703125 2381.80810546875 2381.218994140625 2360.669921875 2349.19091796875 2329.261962890625 2302.262939453125 2272.60400390625 2247.794921875 2211.3759765625 2194.406982421875 2177.177978515625 2162.208984375 2150.429931640625 2139.410888671875 2126.56201171875 2113.962890625 2099.9140625 2085.385009765625 2072.156005859375 2060.116943359375 2044.5479736328125 2031.968994140625 2014.9300537109375 1999.27099609375 1987.572021484375 1978.0030517578125 1971.2440185546875 1962.074951171875 1952.68603515625 1944.8470458984375 1939.8280029296875 1933.178955078125 1925.550048828125 1920.1409912109375 1912.572021484375 1904.782958984375 1893.6739501953125 1889.7349853515625 1901.93603515625 1906.6669921875 1910.2879638671875 1908.2889404296875 1910.3699951171875 1918.2010498046875 1925.612060546875 1933.2330322265625 1939.073974609375 1949.4549560546875 1958.656005859375 1967.886962890625 1975.387939453125 1983.68896484375 1992.68994140625 1986.510986328125 1996.5419921875 2015.77294921875 2027.60400390625 2024.4549560546875 2023.8160400390625 2038.3370361328125 2042.8780517578125 2039.958984375 2031.6300048828125 2029.81103515625 2036.6820068359375 2037.4630126953125 2028.3740234375 2012.0350341796875 1994.7359619140625 1974.218017578125 1952.3489990234375 1936.0899658203125 1932.7919921875 1936.343017578125 1942.9539794921875 1957.345947265625 1961.2969970703125 1971.447998046875 1981.6600341796875 1990.4010009765625 1998.512939453125 2009.654052734375 2014.9949951171875 2003.89697265625 1991.387939453125 1995.7900390625 2001.7110595703125 2007.4019775390625 2017.404052734375 2029.074951171875 2034.7760009765625 2036.8480224609375 2038.218994140625 2037.9110107421875 2030.781982421875 2019.9029541015625 2008.405029296875 1989.2060546875 1967.218017578125 1946.239013671875 1927.68994140625 1909.4219970703125 1891.762939453125 1874.7340087890625 1860.446044921875 1838.5369873046875 1815.0789794921875 1790.3399658203125 1767.031005859375 1759.1629638671875 1784.343994140625 1803.89501953125 1826.636962890625 1827.887939453125 1827.5400390625 1827.77099609375 1818.052001953125 1798.7239990234375 1788.4949951171875 1779.3270263671875 1791.258056640625 1788.279052734375 1773.970947265625 1763.761962890625 1753.6729736328125 1742.0550537109375 1731.4759521484375 1719.5880126953125 1707.01904296875 1695.1199951171875 1680.7220458984375 1666.9930419921875 1653.06494140625 1638.0360107421875 1623.1669921875 1610.0889892578125 1592.1400146484375 1571.9310302734375 1550.052978515625 1529.4739990234375 1514.9659423828125 1498.0069580078125 1482.5279541015625 1468.3299560546875 1453.9510498046875 1443.072021484375 1422.2840576171875 1400.675048828125 1383.3370361328125 1376.97802734375 1371.1390380859375 1366.7110595703125 1357.3719482421875 1340.762939453125 1325.573974609375 1310.405029296875 1295.135986328125 1282.39599609375 1267.636962890625 1255.8079833984375 1243.008056640625 1230.5889892578125 1225.4599609375 1220.7110595703125 1216.6309814453125 1212.592041015625 1209.2530517578125 1205.802978515625 1202.823974609375 1201.56494140625 1198.5250244140625 1195.3759765625 1193.8170166015625 1193.487060546875 1193.427978515625 1193.698974609375 1192.779052734375 1192.6600341796875 1192.1209716796875 1191.73095703125 1191.592041015625 1191.1829833984375 1190.4129638671875 1190.1839599609375 1189.385009765625 1188.7850341796875 1194.906005859375 1207.47705078125 1218.68798828125 1226.907958984375 1238.0889892578125 1250.1099853515625 1261.1400146484375 1271.6910400390625 1280.6619873046875 1291.491943359375 1300.572998046875 1310.2440185546875 1321.134033203125 1333.614990234375 1340.0260009765625 1349.2860107421875 1358.136962890625 1372.0479736328125
2570.4208984375 2589.8310546875 2577.821044921875 2551.14111328125 2510.240966796875 2488.740966796875 2470.94091796875 2455.02197265625 2442.782958984375 2426.6640625 2417.695068359375 2415.166015625 2421.467041015625 2415.3779296875 2413.02001953125 2409.90087890625 2409.552001953125 2417.68310546875 2428.364013671875 2444.034912109375 2443.0859375 2422.287109375 2411.80810546875 2408.18896484375 2403.7099609375 2385.35107421875 2372.27197265625 2348.093017578125 2312.06396484375 2277.445068359375 2251.1259765625 2225.007080078125 2207.16796875 2188.739013671875 2174.31005859375 2166.291015625 2155.362060546875 2143.79296875 2134.114013671875 2122.844970703125 2109.27587890625 2087.14697265625 2075.968017578125 2060.85888671875 2045.449951171875 2029.52099609375 2014.9720458984375 2003.343017578125 1992.2039794921875 1983.074951171875 1971.7359619140625 1961.72705078125 1953.677978515625 1947.137939453125 1938.68896484375 1931.5999755859375 1923.6910400390625 1913.6319580078125 1901.883056640625 1892.7340087890625 1885.5550537109375 1893.345947265625 1897.39697265625 1899.72802734375 1897.989013671875 1899.6099853515625 1903.1910400390625 1910.1619873046875 1913.52294921875 1922.2039794921875 1930.39501953125 1938.446044921875 1947.217041015625 1954.5780029296875 1961.97900390625 1972.0799560546875 1962.4610595703125 1981.1920166015625 1997.1929931640625 2001.1240234375 1999.114990234375 2007.5360107421875 2020.95703125 2018.6180419921875 2020.7989501953125 2008.949951171875 2006.3909912109375 2017.10205078125 2016.27294921875 2014.9539794921875 2004.5050048828125 1986.64599609375 1965.5069580078125 1942.8990478515625 1924.1400146484375 1921.4320068359375 1922.343017578125 1927.4639892578125 1942.0560302734375 1941.8570556640625 1955.4580078125 1965.780029296875 1971.3409423828125 1981.7220458984375 1994.384033203125 1999.925048828125 1990.0369873046875 1977.697998046875 1976.5389404296875 1982.1309814453125 1990.1519775390625 2001.81396484375 2012.0849609375 2017.2060546875 2020.947998046875 2022.5489501953125 2021.989990234375 2018.4219970703125 2012.1529541015625 2001.364990234375 1987.406005859375 1967.126953125 1945.6490478515625 1925.6199951171875 1905.4520263671875 1886.3929443359375 1865.864013671875 1848.4759521484375 1832.5970458984375 1818.8380126953125 1793.280029296875 1768.2509765625 1746.0030517578125 1766.85400390625 1792.0150146484375 1811.5570068359375 1822.697998046875 1821.8890380859375 1821.81103515625 1809.4820556640625 1787.7340087890625 1771.655029296875 1760.865966796875 1771.1080322265625 1772.8289794921875 1760.6610107421875 1744.4019775390625 1739.5830078125 1728.574951171875 1717.5360107421875 1707.0770263671875 1695.6390380859375 1682.1600341796875 1667.9720458984375 1654.60302734375 1638.4439697265625 1622.406005859375 1607.2769775390625 1592.947998046875 1576.1099853515625 1560.281005859375 1539.9129638671875 1519.634033203125 1500.89501953125 1488.376953125 1474.248046875 1458.3199462890625 1447.9310302734375 1435.8919677734375 1425.4940185546875 1406.39501953125 1383.93603515625 1370.8480224609375 1352.5489501953125 1345.1510009765625 1339.991943359375 1331.81298828125 1319.053955078125 1306.7650146484375 1292.0760498046875 1278.946044921875 1263.14697265625 1249.1280517578125 1239.5379638671875 1233.208984375 1227.1400146484375 1221.469970703125 1216.56103515625 1212.3819580078125 1208.342041015625 1205.133056640625 1202.2740478515625 1201.083984375 1195.3759765625 1195.64599609375 1195.22705078125 1194.8470458984375 1194.0880126953125 1193.2889404296875 1193.009033203125 1192.3900146484375 1191.9010009765625 1191.6610107421875 1191.4520263671875 1191.052978515625 1190.60302734375 1190.114013671875 1191.574951171875 1201.2449951171875 1212.5360107421875 1221.5469970703125 1234.1669921875 1242.248046875 1253.0589599609375 1263.1199951171875 1275.1800537109375 1286.4110107421875 1297.9820556640625 1309.27197265625 1319.6729736328125 1334.6639404296875 1344.7239990234375 1353.60498046875 1361.2259521484375 1367.845947265625 1376.0670166015625 1392.947998046875
2551.281005859375 2567.6708984375 2578.7109375 2556.131103515625 2523.9208984375 2490.90087890625 2473.06201171875 2457.373046875 2440.98388671875 2424.97509765625 2417.986083984375 2424.697021484375 2424.177978515625 2425.638916015625 2419.77001953125 2420.740966796875 2426.412109375 2436.863037109375 2449.60400390625 2472.324951171875 2461.02587890625 2442.797119140625 2434.318115234375 2433.739013671875 2423.7900390625 2407.27099609375 2390.1220703125 2362.552978515625 2320.7041015625 2305.094970703125 2271.075927734375 2241.95703125 2219.30810546875 2200.5791015625 2191.699951171875 2185.14111328125 2174.06201171875 2166.443115234375 2163.263916015625 2146.455078125 2125.615966796875 2104.177001953125 2097.197998046875 2082.208984375 2070.159912109375 2053.98095703125 2033.842041015625 2017.3330078125 2006.81396484375 1995.4649658203125 1983.5059814453125 1972.0970458984375 1964.7779541015625 1955.3890380859375 1945.1800537109375 1936.8809814453125 1927.60205078125 1916.9730224609375 1901.9239501953125 1891.9849853515625 1883.666015625 1879.47705078125 1888.39794921875 1890.18896484375 1888.3499755859375 1888.260009765625 1889.3909912109375 1893.2120361328125 1896.2030029296875 1904.573974609375 1910.614990234375 1919.2259521484375 1927.947021484375 1935.0179443359375 1939.8990478515625 1945.77001953125 1946.1209716796875 1961.112060546875 1969.782958984375 1975.614013671875 1975.2850341796875 1991.2960205078125 1998.886962890625 1995.3780517578125 2000.9189453125 1990.239990234375 1983.9510498046875 1993.491943359375 1995.1929931640625 1993.803955078125 1990.2850341796875 1979.166015625 1960.2869873046875 1936.5789794921875 1916.300048828125 1911.041015625 1909.77294921875 1914.10400390625 1923.5450439453125 1927.5169677734375 1941.508056640625 1949.6500244140625 1955.801025390625 1966.612060546875 1977.4539794921875 1983.18505859375 1972.7569580078125 1963.5679931640625 1956.5989990234375 1964.4310302734375 1975.6820068359375 1987.85302734375 1993.0150146484375 1997.7559814453125 2001.8680419921875 2002.8990478515625 2003.3399658203125 2001.741943359375 1995.9630126953125 1989.9639892578125 1977.35595703125 1960.737060546875 1940.8489990234375 1920.5999755859375 1900.4310302734375 1881.7030029296875 1863.073974609375 1844.2060546875 1823.47705078125 1803.91796875 1789.93994140625 1767.6409912109375 1741.072021484375 1755.323974609375 1775.7449951171875 1791.237060546875 1803.8480224609375 1810.239013671875 1808.06103515625 1802.761962890625 1782.1829833984375 1762.0150146484375 1744.68603515625 1747.3380126953125 1749.5689697265625 1747.739990234375 1731.6219482421875 1717.52294921875 1713.5140380859375 1703.18603515625 1691.737060546875 1678.3089599609375 1665.489990234375 1650.220947265625 1638.9229736328125 1625.333984375 1611.7459716796875 1587.447021484375 1571.14794921875 1553.989990234375 1543.1910400390625 1531.842041015625 1515.60400390625 1496.385009765625 1475.7469482421875 1462.738037109375 1452.3489990234375 1440.3909912109375 1426.112060546875 1414.4329833984375 1404.43505859375 1385.5860595703125 1377.998046875 1360.178955078125 1343.8900146484375 1327.9520263671875 1310.56298828125 1301.4739990234375 1291.2449951171875 1278.885009765625 1263.93603515625 1256.5069580078125 1247.0069580078125 1240.14794921875 1233.218994140625 1227.010009765625 1221.3199462890625 1217.31103515625 1211.58203125 1206.08203125 1203.4429931640625 1199.35400390625 1196.7440185546875 1197.175048828125 1196.666015625 1195.446044921875 1194.64697265625 1194.5379638671875 1194.1280517578125 1193.5389404296875 1193.72998046875 1192.8909912109375 1192.291015625 1191.7320556640625 1190.9830322265625 1190.802978515625 1193.343994140625 1205.9849853515625 1216.3349609375 1226.5760498046875 1236.93701171875 1245.636962890625 1258.5780029296875 1269.009033203125 1279.5989990234375 1290.1800537109375 1301.240966796875 1313.6820068359375 1326.2120361328125 1339.383056640625 1357.4840087890625 1363.843994140625 1373.0450439453125 1379.176025390625 1387.7159423828125 1398.22705078125 1407.89794921875
2536.89208984375 2545.402099609375 2561.662109375 2567.39208984375 2543.362060546875 2505.471923828125 2486.883056640625 2461.462890625 2443.083984375 2429.27490234375 2424.635986328125 2432.636962890625 2437.8779296875 2439.198974609375 2432.740966796875 2439.431884765625 2448.10302734375 2455.364013671875 2468.175048828125 2487.406005859375 2482.237060546875 2465.0380859375 2461.09912109375 2461.679931640625 2452.791015625 2426.672119140625 2390.712890625 2361.81396484375 2346.465087890625 2311.24609375 2279.45703125 2266.048095703125 2232.26806640625 2218.8291015625 2213.89990234375 2204.291015625 2197.721923828125 2191.93310546875 2182.31396484375 2169.31494140625 2149.0859375 2127.217041015625 2124.947998046875 2106.37890625 2091.5 2068.541015625 2045.491943359375 2032.60302734375 2021.803955078125 2007.824951171875 1994.385986328125 1983.487060546875 1975.41796875 1964.218994140625 1954.68994140625 1944.4310302734375 1933.7220458984375 1921.31298828125 1907.843994140625 1896.2950439453125 1884.0860595703125 1875.376953125 1878.2080078125 1879.218994140625 1878.93994140625 1878.720947265625 1876.9520263671875 1877.1429443359375 1880.154052734375 1886.0040283203125 1892.5250244140625 1901.2259521484375 1911.2469482421875 1916.248046875 1918.51904296875 1922.449951171875 1927.3909912109375 1938.9820556640625 1948.31298828125 1950.6839599609375 1953.9949951171875 1968.885986328125 1972.9969482421875 1972.16796875 1978.3890380859375 1974.199951171875 1961.8909912109375 1972.1920166015625 1971.133056640625 1968.7840576171875 1969.5050048828125 1961.3060302734375 1949.2869873046875 1929.3690185546875 1909.8399658203125 1898.0810546875 1898.133056640625 1899.884033203125 1903.93505859375 1913.3570556640625 1928.488037109375 1934.448974609375 1939.510986328125 1950.5419921875 1959.634033203125 1965.4549560546875 1956.43603515625 1950.0179443359375 1937.4990234375 1949.6109619140625 1962.4119873046875 1970.4429931640625 1974.89501953125 1979.0260009765625 1983.89697265625 1985.6190185546875 1987.2900390625 1986.31201171875 1981.2230224609375 1974.7139892578125 1966.8060302734375 1954.5369873046875 1940.6280517578125 1919.8699951171875 1898.73095703125 1880.863037109375 1865.1739501953125 1846.93505859375 1827.126953125 1807.1280517578125 1788.1090087890625 1767.73095703125 1741.031982421875 1733.7740478515625 1753.5849609375 1768.39599609375 1782.8280029296875 1795.1490478515625 1794.9110107421875 1790.4019775390625 1778.512939453125 1760.155029296875 1738.7459716796875 1725.95703125 1725.8890380859375 1725.739990234375 1721.501953125 1701.883056640625 1692.4639892578125 1685.2960205078125 1673.927001953125 1660.39794921875 1646.3499755859375 1634.3409423828125 1622.7230224609375 1610.5140380859375 1597.5050048828125 1581.447021484375 1553.8179931640625 1537.8590087890625 1521.720947265625 1522.991943359375 1509.0439453125 1488.8349609375 1470.2359619140625 1450.387939453125 1439.279052734375 1429.06005859375 1416.1219482421875 1398.552978515625 1387.175048828125 1377.64599609375 1366.2469482421875 1357.01904296875 1340.3699951171875 1325.531982421875 1316.1929931640625 1307.7139892578125 1295.7249755859375 1281.5150146484375 1260.7159423828125 1252.7869873046875 1246.3570556640625 1238.657958984375 1231.7490234375 1225.678955078125 1220.1500244140625 1217.4410400390625 1208.77099609375 1204.572021484375 1202.9229736328125 1198.89404296875 1196.7440185546875 1206.3050537109375 1196.9759521484375 1196.446044921875 1195.7469482421875 1194.89794921875 1194.5780029296875 1194.0689697265625 1193.199951171875 1193.030029296875 1193.291015625 1192.4520263671875 1193.072021484375 1199.3330078125 1211.9940185546875 1223.31494140625 1231.7550048828125 1242.916015625 1250.376953125 1262.866943359375 1277.2679443359375 1286.8790283203125 1298.0389404296875 1307.780029296875 1317.240966796875 1329.5810546875 1341.2220458984375 1358.35302734375 1373.7540283203125 1387.053955078125 1393.875 1404.5059814453125 1411.5360107421875 1416.237060546875 1431.157958984375
2532.472900390625 2540.18310546875 2539.1630859375 2549.443115234375 2546.212890625 2518.262939453125 2508.222900390625 2471.39404296875 2455.175048828125 2442.345947265625 2437.787109375 2438.68798828125 2444.569091796875 2438.840087890625 2452.200927734375 2460.44189453125 2469.64306640625 2482.323974609375 2489.074951171875 2506.656005859375 2504.447021484375 2489.76806640625 2486.759033203125 2476.110107421875 2452.180908203125 2433.4619140625 2410.903076171875 2397.073974609375 2371.824951171875 2327.305908203125 2294.95703125 2264.60791015625 2252.93896484375 2248.030029296875 2235.031005859375 2232.06201171875 2229.702880859375 2218.43408203125 2211.385009765625 2187.966064453125 2160.45703125 2154.43798828125 2154.9189453125 2135.070068359375 2106.31103515625 2084.501953125 2061.302001953125 2049.012939453125 2033.073974609375 2019.7449951171875 2006.0660400390625 1997.6070556640625 1986.5579833984375 1975.1190185546875 1963.8699951171875 1953.1510009765625 1941.8819580078125 1928.883056640625 1914.4840087890625 1900.31494140625 1887.156005859375 1873.45703125 1867.5780029296875 1869.1390380859375 1870.1099853515625 1868.990966796875 1867.052001953125 1863.8929443359375 1863.803955078125 1869.0150146484375 1876.2459716796875 1886.8759765625 1894.39697265625 1898.0880126953125 1900.239013671875 1904.050048828125 1908.5909423828125 1918.6820068359375 1924.54296875 1925.9940185546875 1938.2449951171875 1944.6259765625 1945.8370361328125 1950.9580078125 1954.739013671875 1948.9599609375 1939.551025390625 1948.2919921875 1945.822998046875 1944.593994140625 1945.7149658203125 1941.4659423828125 1929.5870361328125 1919.657958984375 1907.75 1885.5810546875 1886.9930419921875 1891.364013671875 1892.5550537109375 1905.3570556640625 1913.3580322265625 1917.989013671875 1925.541015625 1933.4820556640625 1942.0030517578125 1948.43505859375 1939.93603515625 1932.66796875 1919.97900390625 1932.8800048828125 1945.1719970703125 1954.4730224609375 1957.1650390625 1962.2459716796875 1968.2569580078125 1969.279052734375 1970.3499755859375 1966.8709716796875 1963.623046875 1960.7340087890625 1952.365966796875 1942.487060546875 1931.0579833984375 1918.31005859375 1900.3310546875 1879.6619873046875 1860.14404296875 1841.9849853515625 1827.7769775390625 1809.748046875 1789.8089599609375 1768.6009521484375 1743.77197265625 1719.373046875 1730.375 1746.2259521484375 1765.3480224609375 1779.178955078125 1783.989990234375 1776.3919677734375 1767.2330322265625 1751.4639892578125 1737.865966796875 1711.6070556640625 1703.5589599609375 1703.719970703125 1704.541015625 1691.762939453125 1672.7740478515625 1666.7060546875 1656.14697265625 1643.3179931640625 1629.27001953125 1618.551025390625 1605.781982421875 1591.083984375 1580.7349853515625 1566.9969482421875 1548.738037109375 1526.7889404296875 1501.7110595703125 1500.822021484375 1494.762939453125 1477.0450439453125 1459.7659912109375 1442.137939453125 1422.989013671875 1413.3299560546875 1394.1619873046875 1385.0830078125 1373.1739501953125 1361.345947265625 1348.5469970703125 1336.8990478515625 1323.1500244140625 1315.9310302734375 1310.0830078125 1300.904052734375 1293.4439697265625 1285.18505859375 1261.095947265625 1241.5660400390625 1236.9969482421875 1232.64794921875 1228.1390380859375 1222.5989990234375 1217.6800537109375 1211.531005859375 1205.8909912109375 1201.9219970703125 1198.9229736328125 1197.0030517578125 1200.85400390625 1210.7049560546875 1199.655029296875 1202.916015625 1197.737060546875 1195.5379638671875 1195.0179443359375 1194.7989501953125 1195.31005859375 1197.47998046875 1198.9010009765625 1201.3919677734375 1209.241943359375 1216.873046875 1229.0040283203125 1240.833984375 1247.2850341796875 1258.18603515625 1270.7869873046875 1281.697021484375 1294.5479736328125 1306.1290283203125 1317.5489501953125 1328.969970703125 1341.260986328125 1349.6610107421875 1360.1820068359375 1375.9329833984375 1391.843994140625 1408.9539794921875 1420.4749755859375 1425.18603515625 1436.595947265625 1444.8270263671875 1453.177978515625
2526.60302734375 2534.52294921875 2536.153076171875 2532.153076171875 2532.52294921875 2532.653076171875 2527.464111328125 2493.675048828125 2470.595947265625 2463.737060546875 2453.80810546875 2448.55908203125 2452.719970703125 2453.361083984375 2470.412109375 2481.68310546875 2492.52392578125 2505.56494140625 2517.2060546875 2526.7470703125 2530.68798828125 2518.549072265625 2515.169921875 2495.90087890625 2472.89208984375 2457.31298828125 2429.25390625 2404.514892578125 2375.666015625 2345.697021484375 2308.39697265625 2277.248046875 2287.47900390625 2275.110107421875 2260.631103515625 2258.422119140625 2267.552978515625 2249.513916015625 2227.514892578125 2212.0458984375 2184.43701171875 2178.9580078125 2168.529052734375 2151.419921875 2122.220947265625 2100.77197265625 2076.633056640625 2059.50390625 2045.93505859375 2032.0760498046875 2022.697021484375 2011.5980224609375 1996.3990478515625 1984.3790283203125 1975.9000244140625 1964.0909423828125 1951.33203125 1937.0830078125 1922.06396484375 1905.5350341796875 1892.3360595703125 1878.126953125 1865.5980224609375 1859.2889404296875 1862.1700439453125 1860.541015625 1858.9520263671875 1855.6729736328125 1851.073974609375 1853.875 1863.176025390625 1871.1669921875 1877.987060546875 1880.8580322265625 1884.739013671875 1888.5699462890625 1892.3809814453125 1899.9019775390625 1903.79296875 1905.39404296875 1915.375 1920.8360595703125 1922.64697265625 1926.3079833984375 1927.739013671875 1924.68994140625 1918.27099609375 1924.612060546875 1922.29296875 1921.2939453125 1921.9539794921875 1920.916015625 1914.237060546875 1899.0379638671875 1892.280029296875 1876.9510498046875 1875.761962890625 1880.1240234375 1885.60498046875 1895.5660400390625 1900.5679931640625 1905.718994140625 1915.06103515625 1920.9320068359375 1926.6429443359375 1933.6650390625 1927.0059814453125 1913.3270263671875 1902.93896484375 1918.18994140625 1926.4620361328125 1932.8929443359375 1935.7640380859375 1945.9659423828125 1951.2969970703125 1954.009033203125 1953.0699462890625 1951.470947265625 1947.123046875 1942.10400390625 1935.39501953125 1927.866943359375 1918.0279541015625 1905.8199462890625 1893.1409912109375 1878.261962890625 1859.634033203125 1840.9449462890625 1820.3160400390625 1799.258056640625 1783.0589599609375 1767.551025390625 1746.302001953125 1720.9329833984375 1708.7449951171875 1727.60595703125 1746.0169677734375 1761.428955078125 1764.9200439453125 1760.8719482421875 1750.123046875 1741.7740478515625 1726.8160400390625 1711.366943359375 1685.498046875 1680.3199462890625 1684.8609619140625 1678.4830322265625 1662.2840576171875 1644.6650390625 1637.95703125 1626.97802734375 1610.509033203125 1594.81103515625 1583.3719482421875 1572.6739501953125 1563.574951171875 1547.9759521484375 1531.498046875 1517.47900390625 1493.5799560546875 1473.751953125 1472.52294921875 1461.8050537109375 1446.2760009765625 1430.89697265625 1415.8389892578125 1397.8299560546875 1381.6510009765625 1370.4730224609375 1355.4239501953125 1343.64599609375 1333.18701171875 1325.907958984375 1316.43994140625 1310.531005859375 1299.4720458984375 1292.072998046875 1286.384033203125 1282.0550537109375 1266.135986328125 1237.7259521484375 1229.987060546875 1221.7080078125 1219.3780517578125 1215.198974609375 1213.4300537109375 1207.1800537109375 1203.5009765625 1199.7919921875 1198.3330078125 1201.1829833984375 1204.1939697265625 1208.4150390625 1215.9749755859375 1218.2359619140625 1204.8170166015625 1199.39697265625 1200.3480224609375 1201.5489501953125 1204.530029296875 1208.239990234375 1209.9310302734375 1214.3819580078125 1222.112060546875 1232.5830078125 1245.904052734375 1257.073974609375 1265.324951171875 1276.0159912109375 1289.737060546875 1298.0570068359375 1310.41796875 1325.448974609375 1338.8990478515625 1350.6800537109375 1363.8909912109375 1374.8709716796875 1386.612060546875 1395.06298828125 1413.85400390625 1431.2939453125 1442.81494140625 1448.7559814453125 1456.2860107421875 1467.0770263671875 1474.2679443359375
2527.424072265625 2528.47412109375 2527.10400390625 2526.1640625 2522.573974609375 2517.904052734375 2511.235107421875 2500.736083984375 2487.787109375 2478.6669921875 2463.657958984375 2461.198974609375 2457.919921875 2465.8310546875 2490.653076171875 2504.093994140625 2513.27490234375 2525.006103515625 2539.77587890625 2548.93701171875 2548.387939453125 2540.638916015625 2527.510009765625 2507.321044921875 2480.44189453125 2454.2529296875 2423.654052734375 2393.554931640625 2368.0458984375 2337.386962890625 2309.76806640625 2311.7890625 2319.9599609375 2303.4609375 2294.3720703125 2286.1630859375 2289.583984375 2263.574951171875 2240.31591796875 2231.385986328125 2205.487060546875 2206.587890625 2185.489013671875 2156.52001953125 2125.60107421875 2112.632080078125 2096.032958984375 2078.033935546875 2061.64501953125 2047.39599609375 2035.8470458984375 2021.748046875 2007.489013671875 1999.43994140625 1988.321044921875 1976.531982421875 1962.4129638671875 1952.9830322265625 1938.9139404296875 1920.81494140625 1904.4959716796875 1886.97705078125 1870.41796875 1858.93896484375 1852.800048828125 1853.1109619140625 1850.342041015625 1847.363037109375 1844.1739501953125 1843.68505859375 1848.5360107421875 1855.177001953125 1860.5179443359375 1863.7989501953125 1868.239013671875 1871.1199951171875 1873.031005859375 1879.991943359375 1883.4930419921875 1885.843994140625 1893.425048828125 1898.0360107421875 1899.5469970703125 1902.3280029296875 1902.279052734375 1900.75 1898.510986328125 1901.511962890625 1899.6920166015625 1899.532958984375 1899.60400390625 1902.7049560546875 1898.18701171875 1882.2879638671875 1869.4000244140625 1858.4110107421875 1863.85205078125 1869.5340576171875 1880.2550048828125 1881.5360107421875 1884.6080322265625 1892.259033203125 1902.949951171875 1907.8919677734375 1912.133056640625 1913.9649658203125 1916.166015625 1899.3570556640625 1885.5589599609375 1896.989990234375 1908.010986328125 1914.032958984375 1920.2740478515625 1928.865966796875 1933.7969970703125 1936.748046875 1935.780029296875 1933.73095703125 1929.4219970703125 1925.06396484375 1919.2750244140625 1911.64697265625 1902.6180419921875 1891.3489990234375 1880.260986328125 1867.761962890625 1856.7139892578125 1844.074951171875 1821.68603515625 1800.3780517578125 1777.968994140625 1756.22998046875 1738.1419677734375 1718.383056640625 1697.6949462890625 1708.8160400390625 1727.0069580078125 1743.8489990234375 1742.989990234375 1739.4110107421875 1731.7530517578125 1722.364013671875 1712.4759521484375 1699.866943359375 1679.5279541015625 1655.0699462890625 1662.4310302734375 1661.052001953125 1649.4239501953125 1631.81494140625 1618.7569580078125 1605.887939453125 1592.6090087890625 1576.1710205078125 1565.281982421875 1554.06298828125 1541.5150146484375 1528.946044921875 1515.1280517578125 1500.18896484375 1483.1800537109375 1462.2320556640625 1453.593017578125 1446.1839599609375 1432.4659423828125 1415.6070556640625 1400.1590576171875 1389.9100341796875 1375.990966796875 1354.6829833984375 1342.083984375 1332.7650146484375 1322.616943359375 1313.0880126953125 1304.3199462890625 1295.23095703125 1287.83203125 1283.032958984375 1276.4840087890625 1263.594970703125 1255.074951171875 1230.9659423828125 1223.5670166015625 1220.39794921875 1213.387939453125 1213.26904296875 1208.300048828125 1207.510009765625 1206.5909423828125 1199.81201171875 1199.491943359375 1205.7430419921875 1205.2939453125 1214.114990234375 1225.0250244140625 1219.8759765625 1205.9969482421875 1207.7769775390625 1211.0279541015625 1207.9090576171875 1213.239013671875 1220.3699951171875 1222.990966796875 1227.9320068359375 1239.822021484375 1251.9429931640625 1263.583984375 1272.7640380859375 1283.625 1297.18603515625 1308.8360595703125 1322.5970458984375 1333.677978515625 1348.8790283203125 1357.8690185546875 1371.1199951171875 1384.2010498046875 1398.260986328125 1407.02197265625 1422.072998046875 1428.053955078125 1441.56396484375 1456.375 1467.5159912109375 1475.43603515625 1483.70703125 1494.0980224609375
2524.5849609375 2525.344970703125 2524.014892578125 2521.114990234375 2516.235107421875 2512.3349609375 2505.22509765625 2496.5458984375 2491.45703125 2484.867919921875 2476.35888671875 2469.2099609375 2463.760986328125 2479.822021484375 2505.722900390625 2521.6240234375 2531.905029296875 2542.85595703125 2551.677001953125 2556.927978515625 2562.509033203125 2546.9599609375 2530.301025390625 2509.931884765625 2488.193115234375 2465.31396484375 2433.52490234375 2399.716064453125 2368.6669921875 2346.467041015625 2346.697998046875 2333.279052734375 2351.2099609375 2332.56103515625 2327.802001953125 2314.883056640625 2289.694091796875 2272.304931640625 2265.7060546875 2251.297119140625 2235.89794921875 2212.779052734375 2181.580078125 2163.450927734375 2152.02197265625 2136.092041015625 2115.052978515625 2097.033935546875 2080.985107421875 2063.075927734375 2051.007080078125 2035.407958984375 2025.0989990234375 2013.18994140625 2001.551025390625 1991.6519775390625 1983.123046875 1972.5040283203125 1958.35498046875 1945.14599609375 1927.416015625 1906.0169677734375 1884.968017578125 1867.7989501953125 1852.550048828125 1847.041015625 1842.9520263671875 1841.4029541015625 1838.6839599609375 1836.10498046875 1836.635986328125 1840.386962890625 1844.718017578125 1847.3990478515625 1848.5389404296875 1854.9599609375 1854.56103515625 1859.9019775390625 1863.052978515625 1866.5439453125 1872.614990234375 1876.5159912109375 1877.987060546875 1879.3380126953125 1878.8890380859375 1878.5799560546875 1878.6209716796875 1879.010986328125 1878.1219482421875 1878.56298828125 1877.5240478515625 1881.5150146484375 1878.3470458984375 1866.748046875 1850.8489990234375 1845.740966796875 1852.842041015625 1860.6529541015625 1869.175048828125 1867.656005859375 1867.41796875 1880.5489501953125 1888.3499755859375 1888.1319580078125 1889.4229736328125 1893.154052734375 1897.156005859375 1888.5169677734375 1869.8690185546875 1876.3699951171875 1884.821044921875 1894.5030517578125 1903.593994140625 1910.2950439453125 1914.616943359375 1916.968017578125 1916.949951171875 1916.31103515625 1913.10205078125 1909.2440185546875 1903.4649658203125 1896.9859619140625 1888.137939453125 1878.3189697265625 1865.6710205078125 1853.491943359375 1842.4129638671875 1834.89501953125 1821.0760498046875 1801.2969970703125 1780.43896484375 1757.5899658203125 1735.511962890625 1712.5030517578125 1694.134033203125 1694.156005859375 1712.197021484375 1727.488037109375 1724.449951171875 1717.291015625 1709.77294921875 1701.06396484375 1691.31494140625 1680.906982421875 1675.1280517578125 1651.529052734375 1633.9210205078125 1641.6419677734375 1630.343994140625 1616.14501953125 1599.9859619140625 1589.5379638671875 1575.698974609375 1558.3299560546875 1543.842041015625 1534.2330322265625 1521.9150390625 1509.166015625 1499.3170166015625 1484.8990478515625 1468.4599609375 1451.3509521484375 1427.383056640625 1423.7139892578125 1416.2259521484375 1400.20703125 1386.657958984375 1372.06005859375 1357.071044921875 1343.8819580078125 1332.404052734375 1325.5849609375 1315.3470458984375 1309.18798828125 1298.1090087890625 1289.9610595703125 1282.031982421875 1274.782958984375 1269.6839599609375 1258.364013671875 1239.5150146484375 1224.156005859375 1218.366943359375 1216.217041015625 1212.8079833984375 1209.509033203125 1208.7490234375 1207.489990234375 1200.3709716796875 1200.58203125 1207.011962890625 1209.10302734375 1210.2640380859375 1223.89404296875 1226.4449462890625 1218.5660400390625 1214.47705078125 1214.8170166015625 1218.3780517578125 1219.76904296875 1223.5989990234375 1231.780029296875 1238.6910400390625 1244.8310546875 1258.001953125 1272.9129638671875 1278.7840576171875 1293.0140380859375 1305.89501953125 1313.8360595703125 1331.365966796875 1342.89697265625 1355.68798828125 1367.489013671875 1381.6090087890625 1393.5899658203125 1408.781005859375 1418.4210205078125 1424.001953125 1438.613037109375 1443.1929931640625 1447.9139404296875 1470.7149658203125 1488.2359619140625 1491.6259765625 1502.467041015625 1515.0279541015625
2521.216064453125 2518.39599609375 2517.446044921875 2516.02587890625 2513.595947265625 2510.166015625 2504.966064453125 2501.826904296875 2492.93798828125 2484.799072265625 2471.60009765625 2469.180908203125 2478.172119140625 2493.452880859375 2518.444091796875 2532.925048828125 2538.055908203125 2543.596923828125 2554.258056640625 2559.30908203125 2555.6201171875 2543.47998046875 2522.881103515625 2497.14208984375 2474.962890625 2454.9541015625 2426.8349609375 2397.7060546875 2377.507080078125 2380.488037109375 2370.319091796875 2356.340087890625 2374.60107421875 2360.781982421875 2339.343017578125 2326.033935546875 2302.553955078125 2298.864990234375 2284.06591796875 2270.806884765625 2245.60791015625 2215.0791015625 2199.419921875 2196.131103515625 2177.931884765625 2151.5029296875 2135.2939453125 2123.405029296875 2092.325927734375 2082.626953125 2079.406982421875 2059.548095703125 2039.259033203125 2028.219970703125 2019.5009765625 2016.552001953125 2003.6529541015625 1989.384033203125 1976.635009765625 1965.3060302734375 1949.0069580078125 1929.988037109375 1907.01904296875 1884.76904296875 1859.1700439453125 1847.1209716796875 1842.592041015625 1839.0030517578125 1834.1240234375 1830.344970703125 1826.7060546875 1827.487060546875 1830.0579833984375 1831.2889404296875 1836.18994140625 1838.9599609375 1837.3909912109375 1841.001953125 1844.613037109375 1847.134033203125 1851.2650146484375 1855.7860107421875 1857.677001953125 1857.0880126953125 1857.1689453125 1858.3299560546875 1859.43994140625 1857.4610595703125 1856.9219970703125 1857.843017578125 1856.904052734375 1858.7449951171875 1856.5469970703125 1850.8179931640625 1834.18896484375 1835.970947265625 1842.2120361328125 1848.1729736328125 1851.85498046875 1850.345947265625 1851.7969970703125 1866.279052734375 1866.8599853515625 1863.9620361328125 1866.1729736328125 1869.4539794921875 1877.85595703125 1872.616943359375 1856.64794921875 1856.1199951171875 1865.77099609375 1878.843017578125 1886.884033203125 1892.594970703125 1896.70703125 1898.8179931640625 1900.198974609375 1898.0909423828125 1895.2120361328125 1892.5439453125 1886.9150390625 1880.666015625 1871.218017578125 1859.8990478515625 1848.530029296875 1837.6820068359375 1828.0830078125 1818.594970703125 1809.85595703125 1796.2469482421875 1776.3690185546875 1755.280029296875 1731.821044921875 1708.363037109375 1684.364013671875 1677.8360595703125 1696.136962890625 1709.8780517578125 1721.699951171875 1707.6810302734375 1692.4420166015625 1682.823974609375 1673.905029296875 1660.947021484375 1656.988037109375 1647.8890380859375 1621.1610107421875 1613.9420166015625 1611.1929931640625 1599.8050537109375 1585.10595703125 1567.9580078125 1557.5389404296875 1541.030029296875 1525.862060546875 1514.6929931640625 1505.2239990234375 1491.35595703125 1481.7569580078125 1473.8590087890625 1457.9100341796875 1439.8909912109375 1419.093017578125 1401.4940185546875 1396.425048828125 1387.737060546875 1371.2879638671875 1358.4599609375 1342.9510498046875 1330.281982421875 1321.1839599609375 1314.2249755859375 1307.2459716796875 1297.7679443359375 1287.4990234375 1282.5810546875 1277.362060546875 1267.883056640625 1264.60400390625 1260.2139892578125 1240.7850341796875 1217.8260498046875 1213.89599609375 1212.7569580078125 1210.66796875 1209.8289794921875 1208.6490478515625 1205.1700439453125 1200.3709716796875 1207.5810546875 1209.6820068359375 1213.3929443359375 1221.4339599609375 1223.884033203125 1223.7149658203125 1223.0660400390625 1221.9560546875 1222.906982421875 1229.927978515625 1233.0389404296875 1240.3089599609375 1244.8199462890625 1254.1710205078125 1263.4210205078125 1279.281982421875 1290.4730224609375 1302.4930419921875 1318.1240234375 1339.10498046875 1338.0760498046875 1348.5159912109375 1369.0069580078125 1379.64794921875 1396.407958984375 1410.5989990234375 1416.1099853515625 1425.8409423828125 1439.2110595703125 1448.592041015625 1452.383056640625 1471.0030517578125 1465.06396484375 1480.7449951171875 1505.166015625 1509.5159912109375 1522.3270263671875 1536.5479736328125
2530.06591796875 2523.466064453125 2516.7060546875 2515.135986328125 2513.8759765625 2511.865966796875 2507.096923828125 2500.248046875 2493.12890625 2484.908935546875 2478.43994140625 2485.430908203125 2493.612060546875 2510.093017578125 2531.553955078125 2539.10498046875 2540.56591796875 2545.31689453125 2547.18798828125 2548.59912109375 2545.02001953125 2540.3310546875 2534.552001953125 2508.35302734375 2474.75390625 2449.72509765625 2428.89599609375 2415.43701171875 2406.987060546875 2410.60791015625 2383.589111328125 2382.110107421875 2383.27099609375 2371.64208984375 2358.873046875 2336.243896484375 2330.1650390625 2319.99609375 2302.1669921875 2270.738037109375 2256.569091796875 2231.259033203125 2234.219970703125 2227.091064453125 2209.402099609375 2176.60302734375 2153.404052734375 2123.235107421875 2112.446044921875 2111.14697265625 2094.657958984375 2073.85888671875 2059.159912109375 2046.1800537109375 2046.52099609375 2043.7919921875 2024.35302734375 2007.9439697265625 1991.155029296875 1978.196044921875 1960.93701171875 1950.5880126953125 1930.178955078125 1904.68994140625 1881.5699462890625 1862.531005859375 1854.612060546875 1845.1429443359375 1833.614013671875 1825.31494140625 1820.9859619140625 1819.0369873046875 1815.637939453125 1819.6290283203125 1823.449951171875 1823.47998046875 1821.7110595703125 1820.4520263671875 1826.3330078125 1827.0240478515625 1830.43505859375 1835.5660400390625 1838.5069580078125 1836.89794921875 1837.0689697265625 1839.43994140625 1842.02001953125 1838.9010009765625 1836.241943359375 1836.6829833984375 1836.4639892578125 1837.06494140625 1835.39599609375 1833.677978515625 1819.6090087890625 1826.3709716796875 1828.58203125 1828.093017578125 1834.655029296875 1831.9859619140625 1838.8570556640625 1848.97900390625 1848.22998046875 1839.3809814453125 1841.593017578125 1845.2840576171875 1856.68603515625 1854.967041015625 1838.43798828125 1833.6500244140625 1852.4410400390625 1861.6719970703125 1868.614013671875 1874.35498046875 1877.717041015625 1881.0179443359375 1881.1190185546875 1878.7010498046875 1876.322021484375 1873.4429931640625 1868.4449462890625 1860.1259765625 1851.66796875 1842.759033203125 1832.77001953125 1823.9219970703125 1814.843017578125 1805.2139892578125 1796.7659912109375 1789.636962890625 1776.509033203125 1755.800048828125 1734.1109619140625 1710.0830078125 1690.6939697265625 1659.155029296875 1677.2469482421875 1693.8680419921875 1701.8399658203125 1709.470947265625 1703.4820556640625 1689.2740478515625 1670.864990234375 1649.595947265625 1634.748046875 1628.1390380859375 1620.9510498046875 1599.4320068359375 1579.9830322265625 1572.4749755859375 1560.865966796875 1554.447021484375 1537.448974609375 1525.800048828125 1512.541015625 1499.072998046875 1488.114013671875 1476.5760498046875 1468.0870361328125 1465.3079833984375 1451.56005859375 1439.041015625 1425.31201171875 1403.7139892578125 1378.06494140625 1371.5469970703125 1357.5479736328125 1345.8990478515625 1330.531005859375 1318.261962890625 1310.9329833984375 1307.0450439453125 1301.656005859375 1291.0479736328125 1281.8389892578125 1273.2900390625 1265.751953125 1255.123046875 1242.79296875 1234.5040283203125 1220.885009765625 1213.656005859375 1212.7459716796875 1211.64697265625 1210.0579833984375 1209.5379638671875 1208.489013671875 1200.47998046875 1202.3909912109375 1207.6109619140625 1210.31201171875 1215.6629638671875 1224.2330322265625 1223.404052734375 1224.7950439453125 1227.7559814453125 1232.2060546875 1240.366943359375 1245.387939453125 1250.5980224609375 1255.259033203125 1261.3800048828125 1271.7010498046875 1280.6109619140625 1299.612060546875 1312.123046875 1328.8929443359375 1342.6839599609375 1354.3050537109375 1367.926025390625 1378.0159912109375 1391.5870361328125 1406.2679443359375 1421.6180419921875 1431.5789794921875 1438.2900390625 1447.031005859375 1460.1409912109375 1471.4320068359375 1468.9029541015625 1486.4930419921875 1493.0240478515625 1497.0150146484375 1518.3160400390625 1530.0560302734375 1540.467041015625 1558.637939453125
2547.987060546875 2536.987060546875 2525.237060546875 2522.18701171875 2520.70703125 2520.677001953125 2515.797119140625 2506.327880859375 2497.60888671875 2491.489990234375 2499.19091796875 2508.2919921875 2519.64306640625 2529.573974609375 2542.06494140625 2539.966064453125 2532.60693359375 2528.97802734375 2529.7490234375 2530.8798828125 2528.740966796875 2522.412109375 2519.201904296875 2510.492919921875 2487.884033203125 2466.794921875 2455.76611328125 2441.616943359375 2442.39794921875 2421.97900390625 2409.2099609375 2411.700927734375 2402.281982421875 2386.31298828125 2371.242919921875 2361.444091796875 2351.945068359375 2335.845947265625 2317.427001953125 2286.587890625 2272.118896484375 2258.820068359375 2259.791015625 2252.511962890625 2226.373046875 2183.343017578125 2159.864013671875 2150.5849609375 2139.5859375 2140.386962890625 2112.7880859375 2095.569091796875 2080.510009765625 2068.0009765625 2074.652099609375 2072.653076171875 2050.742919921875 2038.384033203125 2014.094970703125 1992.906005859375 1978.7769775390625 1962.47802734375 1945.218994140625 1923.4200439453125 1890.1910400390625 1878.2120361328125 1866.4119873046875 1853.8330078125 1839.333984375 1828.4150390625 1821.3360595703125 1815.5870361328125 1811.22802734375 1809.8089599609375 1808.0899658203125 1809.5009765625 1807.7110595703125 1805.6519775390625 1807.8929443359375 1808.9239501953125 1810.7149658203125 1817.0159912109375 1819.6070556640625 1817.8380126953125 1818.5889892578125 1821.7889404296875 1824.280029296875 1822.6510009765625 1818.4420166015625 1817.623046875 1816.9139404296875 1815.7850341796875 1816.365966796875 1813.41796875 1807.8790283203125 1815 1809.011962890625 1809.60302734375 1816.2440185546875 1816.60595703125 1823.636962890625 1830.968994140625 1829.719970703125 1817.7110595703125 1817.133056640625 1823.654052734375 1837.2449951171875 1836.5469970703125 1821.748046875 1816.3599853515625 1830.8409423828125 1841.9019775390625 1853.7939453125 1859.864990234375 1862.2659912109375 1863.2979736328125 1863.2989501953125 1862.27099609375 1858.7220458984375 1854.2330322265625 1847.824951171875 1842.0059814453125 1833.987060546875 1827.76904296875 1819.6199951171875 1810.9119873046875 1802.613037109375 1793.56396484375 1786.2459716796875 1777.7769775390625 1763.43798828125 1751.25 1734.81103515625 1719.572021484375 1696.823974609375 1664.0250244140625 1654.18701171875 1669.18798828125 1678.8890380859375 1692.3409423828125 1690.862060546875 1676.9930419921875 1664.8050537109375 1647.7760009765625 1626.248046875 1608.68896484375 1601.5699462890625 1596.7220458984375 1586.31298828125 1563.6639404296875 1539.9659423828125 1525.0069580078125 1518.6390380859375 1511.1400146484375 1498.6810302734375 1489.072998046875 1474.7139892578125 1459.324951171875 1451.0670166015625 1449.998046875 1440.9599609375 1426.6409912109375 1411.5419921875 1398.2340087890625 1377.875 1358.89599609375 1344.7779541015625 1333.5689697265625 1320.531005859375 1312.9420166015625 1305.4229736328125 1302.1650390625 1296.2860107421875 1286.487060546875 1275.6490478515625 1265.8599853515625 1255.260986328125 1243.262939453125 1233.843017578125 1223.134033203125 1215.864990234375 1213.7850341796875 1212.9859619140625 1210.3070068359375 1209.468017578125 1208.66796875 1202.259033203125 1202.4200439453125 1202.97998046875 1208.8709716796875 1207.6109619140625 1212.1529541015625 1223.282958984375 1225.1240234375 1231.2750244140625 1237.14501953125 1245.345947265625 1253.636962890625 1260.2879638671875 1266.0279541015625 1270.489013671875 1279.4100341796875 1293.6600341796875 1302.7010498046875 1310.4420166015625 1333.6829833984375 1351.29296875 1362.343994140625 1374.125 1393.425048828125 1403.9959716796875 1411.0570068359375 1424.5780029296875 1438.41796875 1450.0489501953125 1458.0899658203125 1463.9210205078125 1478.8409423828125 1494.011962890625 1493.2530517578125 1497.7530517578125 1517.4539794921875 1521.824951171875 1531.3060302734375 1551.845947265625 1562.2669677734375 1579.1080322265625
2567.68798828125 2550.407958984375 2541.367919921875 2537.048095703125 2533.298095703125 2533.697998046875 2528.988037109375 2525.4189453125 2516.199951171875 2515.240966796875 2520.431884765625 2528.403076171875 2546.6640625 2548.1640625 2529.466064453125 2517.007080078125 2505.508056640625 2502.3779296875 2505.55908203125 2509.830078125 2508.801025390625 2503.2119140625 2499.492919921875 2499.053955078125 2502.864990234375 2490.85595703125 2478.737060546875 2463.337890625 2458.778076171875 2443.09912109375 2432.840087890625 2433.700927734375 2415.98193359375 2400.883056640625 2389.6640625 2385.655029296875 2368.736083984375 2347.826904296875 2323.01708984375 2304.758056640625 2288.708984375 2282.18994140625 2278.071044921875 2256.2919921875 2227.873046875 2190.093994140625 2186.5048828125 2180.615966796875 2174.64599609375 2149.467041015625 2125.14794921875 2122.35888671875 2099.5 2094.77099609375 2094.822021484375 2096.032958984375 2084.634033203125 2070.034912109375 2051.445068359375 2013.4560546875 1987.20703125 1967.5379638671875 1947.448974609375 1927.5699462890625 1905.8409423828125 1891.3719482421875 1879.052978515625 1862.9630126953125 1848.083984375 1834.5250244140625 1824.095947265625 1819.45703125 1815.8079833984375 1809.5489501953125 1804.010009765625 1799.531005859375 1796.2010498046875 1792.33203125 1791.532958984375 1793.7239990234375 1792.0350341796875 1798.885986328125 1800.14697265625 1798.387939453125 1800.8289794921875 1805.009033203125 1808.010009765625 1806.301025390625 1802.6319580078125 1800.0830078125 1800.8740234375 1798.0550537109375 1799.2659912109375 1796.998046875 1798.009033203125 1802.489990234375 1794.9119873046875 1792.782958984375 1797.5040283203125 1801.7359619140625 1806.116943359375 1811.0679931640625 1811.9000244140625 1799.4510498046875 1795.60302734375 1805.9139404296875 1820.0550537109375 1817.68701171875 1803.177978515625 1794.6689453125 1810.1510009765625 1822.612060546875 1835.2740478515625 1841.2950439453125 1842.8160400390625 1845.927978515625 1846.0689697265625 1844.510009765625 1841.6820068359375 1835.3330078125 1828.9649658203125 1823.0260009765625 1818.0870361328125 1813.6490478515625 1806.1700439453125 1800.77099609375 1791.373046875 1782.114013671875 1775.4849853515625 1769.0369873046875 1754.7879638671875 1735.5400390625 1721.9610595703125 1704.8819580078125 1693.4739990234375 1669.5350341796875 1634.2259521484375 1643.8280029296875 1661.5589599609375 1674.3709716796875 1672.1920166015625 1663.2230224609375 1648.2550048828125 1637.2659912109375 1623.737060546875 1603.22900390625 1584.68994140625 1575.7919921875 1571.383056640625 1564.1839599609375 1548.5660400390625 1527.5870361328125 1497.2879638671875 1488.4100341796875 1475.321044921875 1469.0030517578125 1456.0040283203125 1446.0050048828125 1430.7769775390625 1426.468017578125 1423.928955078125 1412.990966796875 1400.1619873046875 1384.4229736328125 1366.5050048828125 1352.916015625 1338.488037109375 1324.448974609375 1316.489990234375 1305.9320068359375 1303.1429443359375 1299.1939697265625 1286.2960205078125 1279.697021484375 1273.458984375 1259.8299560546875 1250.2010498046875 1239.1820068359375 1229.5830078125 1222.323974609375 1217.0550537109375 1214.0849609375 1212.615966796875 1209.0870361328125 1205.89697265625 1203.2879638671875 1202.259033203125 1203.010009765625 1203.949951171875 1209.791015625 1214.1419677734375 1222.612060546875 1226.54296875 1232.35400390625 1239.39501953125 1249.7149658203125 1256.5059814453125 1265.5670166015625 1271.5970458984375 1280.3480224609375 1285.5589599609375 1299.3900146484375 1315.949951171875 1327.27099609375 1338.9520263671875 1354.282958984375 1373.1629638671875 1386.5140380859375 1402.094970703125 1413.905029296875 1427.5560302734375 1436.0670166015625 1441.5980224609375 1456.387939453125 1468.7490234375 1481.489990234375 1487.719970703125 1493.0009765625 1506.4320068359375 1515.012939453125 1515.113037109375 1530.134033203125 1548.85498046875 1553.43603515625 1566.865966796875 1584.8370361328125 1600.748046875
2597.66796875 2581.137939453125 2565.137939453125 2563.97802734375 2557.988037109375 2554.968017578125 2553.5390625 2548.97998046875 2541.9609375 2541.160888671875 2533.39208984375 2533.552978515625 2534.533935546875 2532.114990234375 2503.416015625 2491.306884765625 2482.10791015625 2479.489013671875 2483.75 2488.94091796875 2487.741943359375 2481.673095703125 2478.783935546875 2480.9541015625 2489.405029296875 2503.966064453125 2505.777099609375 2490.55810546875 2480.0791015625 2465.14990234375 2460.930908203125 2449.652099609375 2432.492919921875 2420.64306640625 2410.98388671875 2396.60498046875 2378.31591796875 2358.22705078125 2342.7080078125 2319.93896484375 2315.18994140625 2298.740966796875 2273.73095703125 2247.912109375 2231.60302734375 2222.694091796875 2217.195068359375 2205.756103515625 2173.386962890625 2160.18798828125 2155.0791015625 2142.85888671875 2116.830078125 2117.341064453125 2118.072021484375 2119.633056640625 2113.52392578125 2090.054931640625 2059.966064453125 2031.5469970703125 2005.8070068359375 1978.3580322265625 1954.3289794921875 1936.989990234375 1921.1910400390625 1907.5419921875 1888.863037109375 1872.4239501953125 1859.1240234375 1844.655029296875 1834.135986328125 1825.0670166015625 1819.238037109375 1811.708984375 1809.239990234375 1803.9210205078125 1799.8310546875 1794.751953125 1787.6529541015625 1784.323974609375 1782.93505859375 1781.8759765625 1780.8470458984375 1781.258056640625 1783.64794921875 1787.8790283203125 1791.530029296875 1790.291015625 1785.52197265625 1783.06298828125 1783.303955078125 1782.5050048828125 1783.5460205078125 1785.697021484375 1790.8690185546875 1792.9599609375 1783.9420166015625 1779.532958984375 1781.9339599609375 1786.93603515625 1790.3270263671875 1792.5379638671875 1793.1500244140625 1778.7010498046875 1776.9620361328125 1788.343994140625 1800.3050537109375 1799.1669921875 1786.0179443359375 1777.2490234375 1788.9110107421875 1802.511962890625 1814.623046875 1818.864990234375 1821.2760009765625 1827.1080322265625 1830.1190185546875 1828.6300048828125 1824.1719970703125 1818.7330322265625 1812.7740478515625 1808.885986328125 1805.656982421875 1799.5679931640625 1794.8299560546875 1786.6409912109375 1779.1529541015625 1775.4639892578125 1769.125 1756.72705078125 1752.5279541015625 1733.2989501953125 1712.6409912109375 1692.072021484375 1671.2840576171875 1654.68505859375 1633.2760009765625 1621.0880126953125 1645.198974609375 1650.5 1650.85205078125 1645.873046875 1638.1650390625 1622.635986328125 1612.927001953125 1600.1090087890625 1584.0799560546875 1563.541015625 1550.863037109375 1543.9339599609375 1532.68505859375 1516.89697265625 1500.968017578125 1468.030029296875 1445.240966796875 1443.7320556640625 1432.6240234375 1434.375 1421.7159423828125 1417.968017578125 1415.8990478515625 1401.8609619140625 1385.3819580078125 1371.072998046875 1354.385009765625 1340.7159423828125 1328.1669921875 1318.178955078125 1307.75 1300.8709716796875 1292.31298828125 1284.2540283203125 1278.18603515625 1271.406982421875 1266.8280029296875 1261.2900390625 1243.8809814453125 1230.4320068359375 1224.623046875 1220.803955078125 1215.2039794921875 1213.5250244140625 1210.7559814453125 1204.927001953125 1203.97705078125 1203.64794921875 1203.718994140625 1203.458984375 1205.6500244140625 1210.031005859375 1215.1219482421875 1222.58203125 1229.512939453125 1237.384033203125 1251.654052734375 1261.9949951171875 1268.3160400390625 1275.4169921875 1285.5069580078125 1295.6180419921875 1308.0489501953125 1321.1800537109375 1338.4200439453125 1350.7509765625 1369.9820556640625 1384.0419921875 1392.4229736328125 1410.6639404296875 1423.574951171875 1434.614990234375 1446.3060302734375 1457.626953125 1461.3680419921875 1475.0279541015625 1483.1390380859375 1491.6300048828125 1503.219970703125 1512.6309814453125 1524.592041015625 1536.093017578125 1537.29296875 1550.2540283203125 1568.114990234375 1577.64599609375 1583.85595703125 1600.7869873046875 1625.657958984375
2620.12890625 2601.029052734375 2589.868896484375 2576.39892578125 2572.35888671875 2568.739013671875 2563.908935546875 2550.919921875 2537.220947265625 2522.132080078125 2512.673095703125 2511.1640625 2511.6650390625 2509.60595703125 2486.787109375 2474.677978515625 2465.489013671875 2461.72998046875 2464.591064453125 2469.660888671875 2469.721923828125 2461.133056640625 2459.073974609375 2463.905029296875 2473.656005859375 2489.0869140625 2503.637939453125 2515.759033203125 2518.14892578125 2492.1298828125 2492.551025390625 2468.552001953125 2453.702880859375 2441.944091796875 2428.47509765625 2408.676025390625 2390.035888671875 2375.556884765625 2354.068115234375 2350.049072265625 2334.8798828125 2306.0009765625 2282.261962890625 2264.04296875 2254.6240234375 2245.033935546875 2230.9951171875 2211.93603515625 2192.556884765625 2191.798095703125 2175.698974609375 2147.5 2145.7109375 2140.60107421875 2139.531982421875 2138.962890625 2123.964111328125 2102.804931640625 2081.926025390625 2056.846923828125 2028.907958984375 1996.4580078125 1972.1190185546875 1953.31005859375 1938.1409912109375 1919.02197265625 1900.9329833984375 1887.2640380859375 1869.125 1855.625 1843.7060546875 1833.5670166015625 1831.0379638671875 1816.22900390625 1812.5799560546875 1807.3310546875 1803.112060546875 1797.4420166015625 1787.6629638671875 1784.3740234375 1778.93505859375 1778.7459716796875 1774.947021484375 1772.5880126953125 1773.1180419921875 1773.3089599609375 1776.239990234375 1774.490966796875 1771.2919921875 1767.81298828125 1767.583984375 1768.925048828125 1773.4859619140625 1776.5770263671875 1781.26904296875 1782.9599609375 1774.2110595703125 1767.072998046875 1765.4239501953125 1770.9150390625 1774.4969482421875 1774.66796875 1773.0899658203125 1761.8809814453125 1758.1219482421875 1770.64404296875 1779.7850341796875 1779.9759521484375 1765.8480224609375 1760.489013671875 1772.3310546875 1784.302001953125 1792.623046875 1794.385009765625 1799.2960205078125 1805.8570556640625 1808.5989990234375 1812.530029296875 1809.6009521484375 1805.2130126953125 1801.4639892578125 1796.926025390625 1791.64697265625 1789.2979736328125 1784.25 1776.240966796875 1768.7919921875 1763.7740478515625 1756.594970703125 1744.9169921875 1734.93798828125 1726.3790283203125 1704.3809814453125 1684.501953125 1664.782958984375 1639.2249755859375 1609.0159912109375 1604.0670166015625 1613.178955078125 1614.1800537109375 1622.8719482421875 1623.802978515625 1610.654052734375 1603.9560546875 1598.386962890625 1589.8079833984375 1579.06005859375 1564.321044921875 1543.8330078125 1529.9139404296875 1518.14501953125 1502.0670166015625 1482.498046875 1458.5489501953125 1432.4310302734375 1420.741943359375 1413.5240478515625 1412.5849609375 1414.43603515625 1413.177978515625 1397.029052734375 1387.6099853515625 1374.8919677734375 1358.9429931640625 1341.56396484375 1329.2760009765625 1316.967041015625 1306.4990234375 1299.9599609375 1288.4110107421875 1277.633056640625 1273.384033203125 1264.0550537109375 1260.126953125 1254.68798828125 1246.719970703125 1232.1009521484375 1221.4520263671875 1216.6829833984375 1210.2530517578125 1208.9139404296875 1208.7149658203125 1206.865966796875 1205.095947265625 1204.8570556640625 1203.748046875 1204.3289794921875 1204.43896484375 1205.5400390625 1211.8509521484375 1216.510986328125 1226.842041015625 1232.79296875 1248.9840087890625 1263.7440185546875 1274.18505859375 1283.7659912109375 1291.9169921875 1303.5870361328125 1315.3280029296875 1327.0389404296875 1345.708984375 1358.5 1375.5909423828125 1396.33203125 1408.001953125 1414.1529541015625 1421.053955078125 1441.135009765625 1456.35498046875 1456.906005859375 1467.0670166015625 1475.68701171875 1483.427978515625 1500.009033203125 1510.9000244140625 1520.1600341796875 1533.321044921875 1541.8819580078125 1554.4730224609375 1563.77294921875 1569.89404296875 1585.2049560546875 1598.2159423828125 1608.2960205078125 1622.7469482421875 1647.137939453125
