ncols        256
nrows        21
xllcorner    619882
yllcorner    5135638
cellsize     30.000000000000
NODATA_value  -9999
3245.700927734375 3247.882080078125 3254.35205078125 3266.632080078125 3289.782958984375 3322.032958984375 3315.9130859375 3297.1640625 3293.31396484375 3299.98388671875 3301.205078125 3306.2451171875 3314.055908203125 3317.97607421875 3295.416015625 3275.326904296875 3265.537109375 3256.096923828125 3252.657958984375 3227.18798828125 3211.76904296875 3198.928955078125 3186.97998046875 3175.3701171875 3163.77099609375 3151.131103515625 3137.162109375 3121.8720703125 3109.462890625 3091.943115234375 3079.243896484375 3066.43408203125 3056.125 3053.946044921875 3054.93603515625 3048.3369140625 3043.406982421875 3042.2880859375 3037.818115234375 3031.158935546875 3029.928955078125 3022.10009765625 3021.06005859375 3012.291015625 3016.85107421875 3030.19189453125 3034.14306640625 3051.8330078125 3067.72412109375 3079.073974609375 3110.945068359375 3137.5849609375 3121.885986328125 3129.115966796875 3162.626953125 3155.806884765625 3141.468017578125 3179.569091796875 3219.118896484375 3278.31005859375 3296.110107421875 3277.631103515625 3257.031005859375 3245.3720703125 3222.652099609375 3216.5830078125 3253.98291015625 3285.013916015625 3311.324951171875 3311.97509765625 3323.3359375 3318.115966796875 3299.717041015625 3285.096923828125 3260.947998046875 3243.077880859375 3228.279052734375 3210.090087890625 3182.2900390625 3158.821044921875 3135.90087890625 3109.412109375 3086.912109375 3067.943115234375 3055.54296875 3050.6640625 3052.43408203125 3049.14501953125 3043.93603515625 3036.736083984375 3012.20703125 2996.31689453125 2987.16796875 2969.827880859375 2956.18896484375 2947.549072265625 2941.35009765625 2941.200927734375 2931.220947265625 2935.592041015625 2947.741943359375 2949.113037109375 2944.60302734375 2941.674072265625 2939.43408203125 2938.72509765625 2936.845947265625 2930.718017578125 2921.509033203125 2922.3310546875 2926.18310546875 2937.68408203125 2948.756103515625 2961.777099609375 3007.029052734375 3036.929931640625 3062.60205078125 3076.43408203125 3107.455078125 3099.257080078125 3119.72900390625 3126.69091796875 3141.19189453125 3159.8740234375 3155.9951171875 3148.677001953125 3133.0380859375 3119.1298828125 3127.08203125 3121.943115234375 3106.094970703125 3086.76611328125 3077.80810546875 3072.300048828125 3047.35107421875 3035.173095703125 3009.47412109375 2987.85302734375 2955.06494140625 2915.99609375 2892.327880859375 2871.179931640625 2848.35205078125 2828.694091796875 2810.735107421875 2791.3369140625 2773.1689453125 2757.23095703125 2745.702880859375 2738.00390625 2724.216064453125 2709.337890625 2695.93994140625 2684.362060546875 2671.623046875 2654.27490234375 2637.927001953125 2626.60888671875 2620.861083984375 2603.162109375 2591.743896484375 2588.49609375 2582.89794921875 2582.699951171875 2572.19091796875 2562.012939453125 2541.735107421875 2524.906982421875 2510.3291015625 2494.6201171875 2465.261962890625 2436.743896484375 2405.3359375 2392.577880859375 2383.698974609375 2375.40087890625 2366.173095703125 2356.844970703125 2347.45703125 2336.197998046875 2328.659912109375 2330.862060546875 2340.154052734375 2346.716064453125 2349.5869140625 2355.51904296875 2358.131103515625 2360.3330078125 2366.304931640625 2371.01708984375 2365.298095703125 2356.780029296875 2333.382080078125 2315.81396484375 2295.715087890625 2284.68701171875 2274.76904296875 2265.90087890625 2238.221923828125 2222.60400390625 2187.64599609375 2175.568115234375 2152.708984375 2145.60107421875 2119.23291015625 2097.1650390625 2068.64599609375 2041.22802734375 2039.97998046875 2029.31201171875 2014.633056640625 1999.0250244140625 1990.0469970703125 1978.178955078125 1964.77001953125 1951.4820556640625 1943.7340087890625 1946.35595703125 1927.97705078125 1921.218994140625 1890.571044921875 1897.6829833984375 1898.2550048828125 1897.2060546875 1888.498046875 1883.4599609375 1876.52197265625 1869.06298828125 1864.35498046875 1858.927001953125 1853.6190185546875 1848.9000244140625 1844.4620361328125 1841.5439453125 1839.4560546875 1837.177001953125 1835.218994140625 1833.6510009765625 1831.56298828125 1831.385009765625 1837.0059814453125 1850.5679931640625 1866.9200439453125 1888.9119873046875 1912.552978515625 1938.885009765625 1963.70703125 1974.0989990234375 1974.6800537109375 1971.9620361328125 1967.053955078125 1958.85595703125 1956.0179443359375 1952.509033203125 1946.81103515625 1944.9730224609375
3234.44091796875 3236.1220703125 3243.382080078125 3259.0029296875 3276.873046875 3303.89306640625 3297.2939453125 3282.214111328125 3274.214111328125 3279.264892578125 3279.47509765625 3282.3759765625 3291.785888671875 3294.18603515625 3299.14697265625 3281.116943359375 3272.326904296875 3267.318115234375 3261.47802734375 3259.41796875 3257.01904296875 3207.5791015625 3193.330078125 3181.69091796875 3173.48095703125 3169.072021484375 3139.1220703125 3118.512939453125 3104.802978515625 3094.52392578125 3080.424072265625 3069.5048828125 3056.4150390625 3047.35595703125 3042.257080078125 3042.596923828125 3037.117919921875 3035.97802734375 3030.468994140625 3019.009033203125 3008.510009765625 3004.800048828125 2996.160888671875 2986.841064453125 2995.011962890625 2999.572998046875 3006.762939453125 3025.093994140625 3049.944091796875 3060.18505859375 3095.89501953125 3108.506103515625 3092.676025390625 3127.906982421875 3129.527099609375 3126.7880859375 3121.908935546875 3161.0390625 3217.830078125 3256.77001953125 3260.14111328125 3260.541015625 3233.8720703125 3224.23193359375 3194.972900390625 3201.10400390625 3230.6640625 3256.27490234375 3292.1650390625 3285.535888671875 3303.635986328125 3311.076904296875 3288.777099609375 3268.677978515625 3249.759033203125 3238.72900390625 3219.22998046875 3200.47998046875 3177.260986328125 3156.841064453125 3139.431884765625 3104.69189453125 3083.452880859375 3065.384033203125 3051.89404296875 3040.054931640625 3040.824951171875 3039.01611328125 3034.095947265625 3032.4169921875 3008.06689453125 2983.248046875 2965.72900390625 2962.698974609375 2947.090087890625 2931.780029296875 2927.361083984375 2926.9208984375 2923.77197265625 2926.58203125 2937.613037109375 2945.364013671875 2945.6640625 2942.695068359375 2939.655029296875 2938.756103515625 2936.806884765625 2933.779052734375 2922.72998046875 2920.072021484375 2921.14306640625 2926.405029296875 2937.89599609375 2938.827880859375 2960.0400390625 2998.60107421875 3033.032958984375 3051.6240234375 3066.666015625 3069.68798828125 3090.679931640625 3102.341064453125 3118.39306640625 3140.944091796875 3145.85595703125 3134.18798828125 3110.7890625 3095.90087890625 3101.612060546875 3121.1240234375 3136.014892578125 3115.20703125 3109.62890625 3110.330078125 3087.58203125 3069.593017578125 3040.5849609375 3018.943115234375 2981.35498046875 2952.507080078125 2905.68896484375 2902.220947265625 2863.6220703125 2843.98388671875 2838.736083984375 2789.93798828125 2775.110107421875 2760.611083984375 2746.23291015625 2729.074951171875 2711.326904296875 2697.178955078125 2683.52001953125 2669.60205078125 2656.64404296875 2642.8359375 2629.258056640625 2611.72900390625 2604.220947265625 2594.712890625 2580.43505859375 2583.287109375 2573.51806640625 2564.669921875 2552.69189453125 2548.384033203125 2530.986083984375 2512.197021484375 2495.05908203125 2470.700927734375 2447.93310546875 2428.635009765625 2411.035888671875 2392.657958984375 2376.340087890625 2365.251953125 2356.694091796875 2346.885009765625 2337.056884765625 2327.7890625 2316.94091796875 2311.343017578125 2315.6650390625 2319.676025390625 2324.85791015625 2335.340087890625 2345.281982421875 2347.18408203125 2347.554931640625 2361.027099609375 2371.80908203125 2364.64111328125 2360.412109375 2357.114013671875 2326.285888671875 2307.76806640625 2307.339111328125 2303.341064453125 2285.383056640625 2262.804931640625 2233.22705078125 2212.077880859375 2202.8701171875 2191.2119140625 2168.72412109375 2138.925048828125 2097.467041015625 2075.928955078125 2055.740966796875 2037.072021484375 2015.85400390625 1997.416015625 1985.2879638671875 1977.8990478515625 1970.5909423828125 1957.802978515625 1939.10498046875 1925.43701171875 1921.677978515625 1910.8199462890625 1899.83203125 1874.0240478515625 1873.905029296875 1884.7769775390625 1886.5589599609375 1878.781005859375 1872.81201171875 1868.303955078125 1860.3060302734375 1857.0479736328125 1852.949951171875 1849.2010498046875 1844.9830322265625 1841.594970703125 1838.2769775390625 1836.22802734375 1833.6199951171875 1832.7120361328125 1830.364013671875 1829.8759765625 1828.5670166015625 1839.009033203125 1858.220947265625 1879.5030517578125 1901.7740478515625 1926.5059814453125 1954.718017578125 1963.5999755859375 1964.322021484375 1962.0830078125 1957.9649658203125 1949.7969970703125 1948.0489501953125 1944.5899658203125 1941.02197265625 1934.823974609375
3223.402099609375 3224.632080078125 3233.501953125 3244.0830078125 3270.012939453125 3283.803955078125 3269.06396484375 3258.75390625 3256.8349609375 3254.784912109375 3261.175048828125 3259.196044921875 3269.506103515625 3270.197021484375 3268.237060546875 3284.14697265625 3281.177978515625 3273.39794921875 3277.548095703125 3276.779052734375 3262.5390625 3230.580078125 3214.389892578125 3195.410888671875 3182.881103515625 3177.302001953125 3167.943115234375 3148.98291015625 3114.583984375 3087.114013671875 3078.93505859375 3060.405029296875 3046.756103515625 3040.97607421875 3037.947021484375 3035.97802734375 3036.548095703125 3029.759033203125 3021.8291015625 3013.9599609375 2990.550048828125 2987.37109375 2985.19091796875 2974.552001953125 2973.8720703125 2981.822998046875 2989.22412109375 2999.553955078125 3030.7451171875 3037.784912109375 3075.446044921875 3068.51611328125 3075.326904296875 3129.007080078125 3095.51806640625 3099.158935546875 3103.489013671875 3144.7099609375 3218.179931640625 3253.321044921875 3232.98095703125 3217.072021484375 3201.132080078125 3194.14306640625 3166.073974609375 3183.444091796875 3211.455078125 3236.844970703125 3271.49609375 3257.736083984375 3277.60693359375 3303.096923828125 3280.91796875 3258.2890625 3239.549072265625 3225.949951171875 3204.3798828125 3188.341064453125 3170.35107421875 3156.382080078125 3133.113037109375 3101.423095703125 3081.9541015625 3066.743896484375 3050.554931640625 3036.4951171875 3031.845947265625 3028.115966796875 3021.56689453125 3015.097900390625 2996.887939453125 2974.6689453125 2964.549072265625 2958.6298828125 2954.419921875 2930.111083984375 2925.052001953125 2918.152099609375 2913.35302734375 2918.972900390625 2927.083984375 2939.763916015625 2944.324951171875 2943.06494140625 2941.97607421875 2938.0869140625 2936.528076171875 2932.489013671875 2927.381103515625 2916.943115234375 2917.52392578125 2918.535888671875 2925.777099609375 2929.85888671875 2934.06005859375 2955.362060546875 2991.714111328125 3025.56494140625 3038.56689453125 3031.51806640625 3063.31005859375 3078.882080078125 3107.674072265625 3112.60498046875 3129.876953125 3110.498046875 3094.8798828125 3072.27099609375 3085.64306640625 3108.1650390625 3159.2060546875 3144.64794921875 3124.62890625 3106.77099609375 3099.2919921875 3079.404052734375 3053.055908203125 3034.77392578125 3015.845947265625 2971.818115234375 2935.529052734375 2905.2509765625 2882.943115234375 2864.675048828125 2845.45703125 2824.10791015625 2791.5 2772.902099609375 2751.823974609375 2733.166015625 2713.846923828125 2694.26904296875 2675.8310546875 2660.43310546875 2646.985107421875 2633.35693359375 2619.318115234375 2606.43994140625 2591.89208984375 2584.27392578125 2567.906005859375 2570.56689453125 2560.839111328125 2540.571044921875 2529.462890625 2526.85498046875 2526.656005859375 2506.30810546875 2486.22998046875 2466.431884765625 2448.64404296875 2429.4951171875 2411.18701171875 2392.8291015625 2375.4609375 2360.23291015625 2347.52392578125 2338.39599609375 2329.097900390625 2319.949951171875 2311.991943359375 2302.492919921875 2294.0849609375 2297.136962890625 2300.2490234375 2307.52099609375 2319.471923828125 2326.97412109375 2330.156005859375 2343.16796875 2352.8701171875 2375.160888671875 2381.722900390625 2386.06494140625 2356.346923828125 2360.72802734375 2337.56005859375 2318.052001953125 2296.31396484375 2274.93505859375 2252.287109375 2232.569091796875 2213.970947265625 2192.991943359375 2172.75390625 2133.7958984375 2107.468017578125 2092.090087890625 2078.470947265625 2059.60302734375 2024.7750244140625 2002.22705078125 1984.68798828125 1977.1099853515625 1970.261962890625 1960.6739501953125 1947.10595703125 1915.197021484375 1906.968994140625 1903.801025390625 1888.873046875 1869.1739501953125 1848.6259765625 1861.72802734375 1880.510009765625 1875.991943359375 1867.06298828125 1864.074951171875 1860.177001953125 1855.458984375 1852.9000244140625 1848.3719482421875 1844.614013671875 1841.5159912109375 1838.5880126953125 1836.178955078125 1834.4610595703125 1830.123046875 1828.905029296875 1827.5560302734375 1827.258056640625 1833.8399658203125 1853.83203125 1873.9239501953125 1895.7550048828125 1919.18701171875 1941.3289794921875 1951.071044921875 1953.7230224609375 1951.2640380859375 1948.426025390625 1945.0279541015625 1940.1400146484375 1934.6510009765625 1930.9530029296875 1918.625
3212.382080078125 3212.491943359375 3218.48291015625 3225.952880859375 3246.4130859375 3266.6640625 3249.993896484375 3239.764892578125 3237.93505859375 3231.864990234375 3236.7060546875 3235.865966796875 3246.576904296875 3248.547119140625 3240.826904296875 3250.407958984375 3275.097900390625 3286.18798828125 3267.428955078125 3265.12890625 3264.18994140625 3271.860107421875 3252.40087890625 3215.510986328125 3192.281982421875 3183.6220703125 3169.762939453125 3159.35400390625 3148.93408203125 3090.22509765625 3073.4951171875 3070.97607421875 3051.825927734375 3041.806884765625 3033.237060546875 3034.097900390625 3030.739013671875 3024.97900390625 3009.840087890625 2994.219970703125 2976.091064453125 2972.5009765625 2975.52197265625 2969.552001953125 2958.8330078125 2965.154052734375 2970.944091796875 2977.64501953125 2994.35498046875 3016.3359375 3052.64599609375 3042.9970703125 3067.306884765625 3108.407958984375 3070.698974609375 3067.55908203125 3082.77001953125 3166.97998046875 3200.94091796875 3244.90087890625 3221.882080078125 3184.592041015625 3173.423095703125 3152.283935546875 3140.06396484375 3177.10498046875 3203.695068359375 3226.966064453125 3233.615966796875 3238.35693359375 3266.758056640625 3297.177978515625 3274.59912109375 3251.62890625 3227.969970703125 3205.699951171875 3190.37109375 3174.7919921875 3164.33203125 3156.653076171875 3135.14306640625 3105.783935546875 3078.593994140625 3061.68505859375 3047.5048828125 3040.535888671875 3029.01708984375 3019.846923828125 3013.548095703125 3008.43798828125 2994.62890625 2979.569091796875 2967.199951171875 2960.69091796875 2953.531005859375 2932.902099609375 2919.77197265625 2914.802978515625 2912.113037109375 2914.93408203125 2920.56494140625 2932.804931640625 2942.006103515625 2942.8759765625 2940.237060546875 2935.737060546875 2931.208984375 2929.7900390625 2929.3720703125 2918.1630859375 2912.9951171875 2911.6259765625 2913.8779296875 2920.659912109375 2924.910888671875 2935.443115234375 2966.904052734375 2982.18603515625 2986.826904296875 2992.799072265625 3022.73095703125 3059.742919921875 3074.444091796875 3084.916015625 3116.076904296875 3097.009033203125 3070.85107421875 3048.56201171875 3055.8740234375 3090.554931640625 3125.64697265625 3131.238037109375 3113.8798828125 3100.7919921875 3101.6630859375 3085.264892578125 3065.575927734375 3042.8349609375 3002.7470703125 2959.218017578125 2924.9599609375 2906.33203125 2889.14404296875 2873.416015625 2847.047119140625 2821.7890625 2800.470947265625 2779.653076171875 2757.044921875 2736.9560546875 2719.097900390625 2699.35009765625 2676.23193359375 2657.72412109375 2640.5048828125 2627.406982421875 2613.138916015625 2595.510986328125 2579.5029296875 2571.4140625 2557.575927734375 2544.347900390625 2533.340087890625 2527.422119140625 2516.5029296875 2507.93505859375 2507.537109375 2507.22900390625 2489.3310546875 2468.7919921875 2449.674072265625 2432.666015625 2414.298095703125 2396.070068359375 2378.7509765625 2361.222900390625 2344.89501953125 2331.257080078125 2322.888916015625 2313.93994140625 2305.56201171875 2297.214111328125 2289.805908203125 2284.468017578125 2278.908935546875 2286.470947265625 2295.423095703125 2306.864990234375 2310.326904296875 2320.847900390625 2331.820068359375 2359.672119140625 2375.583984375 2392.014892578125 2390.797119140625 2371.3291015625 2347.56103515625 2324.89306640625 2301.48388671875 2277.31591796875 2253.498046875 2229.64990234375 2206.051025390625 2182.3330078125 2161.205078125 2149.5869140625 2141.68798828125 2121.010009765625 2102.5419921875 2073.64404296875 2036.7760009765625 2014.0770263671875 1994.3089599609375 1986.1510009765625 1974.9530029296875 1961.7750244140625 1945.7559814453125 1924.7879638671875 1908.780029296875 1885.08203125 1883.2430419921875 1862.1949462890625 1845.427001953125 1841.8389892578125 1860.321044921875 1877.031982421875 1869.6739501953125 1865.9859619140625 1859.8680419921875 1855.8299560546875 1851.48095703125 1848.1529541015625 1844.4749755859375 1841.217041015625 1837.5179443359375 1834.530029296875 1832.281982421875 1829.9739990234375 1828.0760498046875 1825.7569580078125 1825.5689697265625 1828.010986328125 1848.7130126953125 1867.9649658203125 1889.9560546875 1912.407958984375 1928.010009765625 1940.6619873046875 1943.60400390625 1938.5849609375 1938.427001953125 1938.009033203125 1931.9410400390625 1925.2130126953125 1919.884033203125 1910.666015625
3201.181884765625 3200.262939453125 3203.572998046875 3210.012939453125 3225.533935546875 3258.803955078125 3237.243896484375 3217.89501953125 3214.155029296875 3210.285888671875 3214.06591796875 3213.736083984375 3224.797119140625 3227.85693359375 3220.51806640625 3218.68798828125 3242.3779296875 3259.089111328125 3269.62890625 3253.77001953125 3247.43994140625 3239.39111328125 3228.4609375 3199.06201171875 3174.241943359375 3166.262939453125 3158.52294921875 3154.4541015625 3146.52392578125 3120.534912109375 3076.5458984375 3064.845947265625 3052.72705078125 3048.60693359375 3042.827880859375 3032.5380859375 3021.638916015625 3015.819091796875 3001.8798828125 2981.631103515625 2965.94091796875 2956.991943359375 2962.781982421875 2965.202880859375 2952.173095703125 2955.3740234375 2952.955078125 2958.4951171875 2971.26611328125 3022.305908203125 3016.1669921875 3024.22705078125 3064.6279296875 3067.739013671875 3052.299072265625 3044.139892578125 3113.429931640625 3158.611083984375 3202.930908203125 3199.701904296875 3177.001953125 3160.0029296875 3145.924072265625 3119.384033203125 3127.455078125 3154.27490234375 3192.01611328125 3225.31591796875 3205.45703125 3202.26806640625 3241.887939453125 3287.779052734375 3265.759033203125 3241.679931640625 3220.22998046875 3203.3310546875 3190.3720703125 3179.052001953125 3167.52294921875 3149.633056640625 3141.134033203125 3100.493896484375 3079.2548828125 3061.285888671875 3053.115966796875 3043.906982421875 3034.6669921875 3025.947998046875 3011.347900390625 3004.84912109375 2990.260009765625 2977.8701171875 2968.4609375 2958.841064453125 2947.501953125 2928.681884765625 2921.1630859375 2913.00390625 2911.424072265625 2912.965087890625 2916.72509765625 2925.93603515625 2936.60693359375 2939.717041015625 2934.2880859375 2930.35791015625 2921.43896484375 2922.64111328125 2923.81298828125 2918.1240234375 2908.845947265625 2908.326904296875 2906.339111328125 2911.080078125 2919.27197265625 2920.462890625 2926.3349609375 2937.287109375 2963.498046875 2961.489990234375 2986.052001953125 3028.282958984375 3049.094970703125 3089.126953125 3053.568115234375 3040.239990234375 3053.77099609375 3027.462890625 3038.56396484375 3080.51611328125 3088.85791015625 3107.989013671875 3099.970947265625 3104.412109375 3100.743896484375 3092.4951171875 3073.01708984375 3054.554931640625 2993.677001953125 2954.0791015625 2926.930908203125 2910.202880859375 2898.303955078125 2874.635986328125 2854.097900390625 2829.909912109375 2806.842041015625 2782.843017578125 2760.875 2740.556884765625 2722.888916015625 2703.37109375 2679.802001953125 2657.763916015625 2639.156005859375 2620.907958984375 2604.89990234375 2584.85107421875 2568.89306640625 2559.135009765625 2549.306884765625 2537.658935546875 2527.43994140625 2517.681884765625 2510.00390625 2498.696044921875 2490.298095703125 2490.4990234375 2494.111083984375 2478.5830078125 2459.7451171875 2440.737060546875 2421.427978515625 2401.8798828125 2382.181884765625 2363.2939453125 2346.756103515625 2329.93701171875 2317.178955078125 2309.260986328125 2301.633056640625 2294.43505859375 2287.115966796875 2281.1279296875 2274.39990234375 2268.001953125 2274.1240234375 2282.64501953125 2291.1669921875 2302.30908203125 2312.970947265625 2328.201904296875 2356.6240234375 2375.43603515625 2389.157958984375 2382.60009765625 2355.821044921875 2340.492919921875 2312.1650390625 2285.037109375 2269.84912109375 2244.760009765625 2223.781982421875 2210.803955078125 2195.76611328125 2174.697021484375 2153.948974609375 2138.14111328125 2119.64306640625 2089.764892578125 2058.81591796875 2030.18798828125 2010.3900146484375 1995.3719482421875 1978.9539794921875 1962.68505859375 1947.97705078125 1933.759033203125 1914.02099609375 1887.592041015625 1867.2340087890625 1852.2760009765625 1838.718017578125 1831.1500244140625 1844.9110107421875 1870.593017578125 1867.4150390625 1861.8570556640625 1856.1590576171875 1852.469970703125 1848.1419677734375 1843.1939697265625 1841.2760009765625 1838.387939453125 1836.1390380859375 1833.56103515625 1831.343017578125 1829.5050048828125 1830.3170166015625 1823.3380126953125 1825.2099609375 1823.60205078125 1841.583984375 1861.885986328125 1885.89697265625 1905.72900390625 1916.6409912109375 1924.7130126953125 1928.4949951171875 1925.196044921875 1926.5479736328125 1922.5799560546875 1919.77197265625 1912.0140380859375 1910.2950439453125 1905.9969482421875
3191.0419921875 3188.423095703125 3189.762939453125 3196.714111328125 3215.93408203125 3250.283935546875 3224.0048828125 3197.465087890625 3190.31591796875 3188.555908203125 3183.716064453125 3191.197021484375 3202.89697265625 3207.0380859375 3202.548095703125 3196.738037109375 3214.7490234375 3246.529052734375 3254.3701171875 3246.77001953125 3225.4599609375 3208.410888671875 3200.260986328125 3181.1220703125 3161.613037109375 3157.60302734375 3151.14404296875 3150.22412109375 3143.635009765625 3128.864990234375 3107.075927734375 3065.9169921875 3056.93701171875 3052.8779296875 3034.93798828125 3021.948974609375 3013.489013671875 3013.0400390625 3000.760986328125 2979.010986328125 2962.5419921875 2947.7919921875 2949.113037109375 2955.762939453125 2948.02392578125 2939.763916015625 2939.1650390625 2943.1259765625 2954.845947265625 2985.306884765625 2989.406982421875 3034.85791015625 3032.587890625 3024.85888671875 3015.330078125 3024.1298828125 3068.220947265625 3161.041015625 3170.781982421875 3142.02197265625 3146.952880859375 3133.02392578125 3111.904052734375 3091.39501953125 3126.784912109375 3134.176025390625 3189.876953125 3180.797119140625 3170.818115234375 3192.41796875 3236.84912109375 3275.0390625 3262.320068359375 3241.4609375 3224.091064453125 3213.10205078125 3198.802001953125 3182.113037109375 3167.052978515625 3155.444091796875 3136.52490234375 3107.114990234375 3086.8359375 3065.81591796875 3055.70703125 3046.85693359375 3036.39794921875 3027.18896484375 3018.009033203125 3009.530029296875 2997.219970703125 2984.39111328125 2970.260986328125 2958.73193359375 2951.10302734375 2941.1630859375 2927.843994140625 2921.493896484375 2914.81494140625 2910.5859375 2912.986083984375 2917.64697265625 2928.10693359375 2933.35791015625 2925.91796875 2921.908935546875 2916.080078125 2914.85205078125 2917.2529296875 2915.31494140625 2900.68603515625 2898.76806640625 2900.800048828125 2902.39111328125 2911.302978515625 2912.053955078125 2911.345947265625 2923.527099609375 2934.89892578125 2942.330078125 2952.18310546875 3019.783935546875 3028.885986328125 3048.777099609375 3065.85888671875 3019.139892578125 2988.662109375 2991.2041015625 3023.385009765625 3044.537109375 3070.51806640625 3095.590087890625 3096.881103515625 3099.653076171875 3097.243896484375 3091.4560546875 3076.827880859375 3019.156005859375 2987.1279296875 2953.219970703125 2934.781005859375 2918.06298828125 2903.695068359375 2877.9169921875 2857.12890625 2835.239990234375 2810.412109375 2787.424072265625 2765.43603515625 2743.278076171875 2721.178955078125 2701.381103515625 2678.54296875 2660.014892578125 2637.487060546875 2621.758056640625 2601.260009765625 2579.6220703125 2563.2939453125 2550.3759765625 2543.556884765625 2532.60888671875 2521.94091796875 2512.593017578125 2503.344970703125 2494.72607421875 2485.818115234375 2477.300048828125 2477.221923828125 2475.803955078125 2468.875 2448.237060546875 2427.029052734375 2405.740966796875 2385.54296875 2366.444091796875 2349.14599609375 2338.6279296875 2327.840087890625 2317.842041015625 2305.8330078125 2293.18505859375 2284.287109375 2275.428955078125 2270.281005859375 2261.172119140625 2257.68408203125 2263.2060546875 2272.76806640625 2283.97998046875 2293.821044921875 2312.1630859375 2330.0048828125 2358.967041015625 2373.528076171875 2381.919921875 2375.1220703125 2353.573974609375 2326.135986328125 2309.1669921875 2283.239013671875 2262.321044921875 2242.153076171875 2224.054931640625 2199.06591796875 2174.9580078125 2154.52001953125 2132.531982421875 2111.4541015625 2086.014892578125 2057.9970703125 2040.7889404296875 2020.81103515625 1998.9129638671875 1977.9840087890625 1963.0159912109375 1947.947998046875 1932.530029296875 1919.58203125 1900.532958984375 1877.5050048828125 1847.366943359375 1830.47900390625 1821.8709716796875 1831.2320556640625 1857.2840576171875 1864.8759765625 1861.697998046875 1856.5689697265625 1850.27099609375 1847.593017578125 1842.9849853515625 1838.7769775390625 1835.8179931640625 1834.449951171875 1833.092041015625 1831.4840087890625 1829.8260498046875 1828.8470458984375 1823.3489990234375 1822.3709716796875 1822.322998046875 1835.364990234375 1855.7359619140625 1881.1280517578125 1896.68994140625 1906.4320068359375 1911.1839599609375 1914.364990234375 1916.3470458984375 1915.029052734375 1911.8509521484375 1909.2130126953125 1901.4539794921875 1901.2459716796875 1897.1180419921875
3181.673095703125 3178.712890625 3178.9130859375 3186.464111328125 3204.763916015625 3240.034912109375 3204.375 3182.695068359375 3170.305908203125 3168.56591796875 3164.56689453125 3163.81689453125 3183.037109375 3183.498046875 3187.387939453125 3179.84912109375 3194.009033203125 3208.97900390625 3237.169921875 3227.449951171875 3209.98095703125 3191.111083984375 3182.81201171875 3168.552001953125 3153.35302734375 3143.843994140625 3141.75390625 3141.7548828125 3137.4951171875 3112.135986328125 3101.966064453125 3082.10693359375 3050.998046875 3048.51806640625 3036.529052734375 3026.14892578125 3018.93994140625 3015.639892578125 3011.490966796875 2997.031982421875 2963.60205078125 2944.443115234375 2934.193115234375 2940.993896484375 2942.39404296875 2928.43505859375 2925.52587890625 2926.236083984375 2938.427001953125 2956.197021484375 2971.16796875 2982.72802734375 2991.09912109375 2985.260009765625 2997.320068359375 2999.990966796875 3014.950927734375 3086.98193359375 3117.58203125 3110.27294921875 3111.27392578125 3102.614013671875 3071.014892578125 3073.594970703125 3109.18603515625 3148.406982421875 3148.18701171875 3141.087890625 3162.077880859375 3205.279052734375 3239.948974609375 3256.8701171875 3270.571044921875 3256.680908203125 3245.7919921875 3234.781982421875 3216.883056640625 3203.18310546875 3182.634033203125 3164.485107421875 3146.35498046875 3122.01611328125 3094.075927734375 3070.5869140625 3050.278076171875 3039.137939453125 3034.468994140625 3026.678955078125 3019.570068359375 3010.6298828125 2997.90087890625 2987.951904296875 2974.511962890625 2962.302978515625 2951.02294921875 2946.614013671875 2940.385009765625 2927.7548828125 2920.345947265625 2911.466064453125 2909.8369140625 2912.41796875 2917.988037109375 2922.12890625 2917.8291015625 2913.6298828125 2911.881103515625 2911.881103515625 2913.7939453125 2911.3359375 2895.26708984375 2886.489013671875 2894.260009765625 2894.412109375 2902.012939453125 2901.735107421875 2899.677001953125 2909.66796875 2919.14990234375 2922.73095703125 2931.4130859375 2986.02490234375 3016.1669921875 3015.14794921875 3022.719970703125 3001.10107421875 2959.282958984375 2982.02392578125 3008.676025390625 3038.7470703125 3073.5390625 3088.700927734375 3087.431884765625 3089.77392578125 3083.93505859375 3076.3369140625 3052.278076171875 3007.95703125 2984.137939453125 2958.699951171875 2938.471923828125 2919.68408203125 2901.256103515625 2879.797119140625 2858.658935546875 2833.781005859375 2811.883056640625 2790.735107421875 2766.97607421875 2742.22802734375 2718.340087890625 2697.511962890625 2677.803955078125 2657.715087890625 2642.156982421875 2627.5390625 2603.160888671875 2580.633056640625 2559.283935546875 2544.216064453125 2533.258056640625 2527.840087890625 2518.882080078125 2509.54296875 2499.375 2490.717041015625 2481.678955078125 2472.9208984375 2463.73193359375 2461.404052734375 2453.2958984375 2446.298095703125 2431.840087890625 2407.52099609375 2385.052978515625 2366.195068359375 2353.406982421875 2343.76904296875 2328.3798828125 2309.902099609375 2294.0439453125 2282.196044921875 2276.008056640625 2269.2490234375 2265.291015625 2256.722900390625 2250.43505859375 2248.68701171875 2255.43798828125 2265.2099609375 2275.531982421875 2289.843994140625 2311.6259765625 2337.6669921875 2357.718994140625 2365.89111328125 2375.343017578125 2357.875 2334.9560546875 2315.407958984375 2296.6201171875 2270.402099609375 2249.47412109375 2229.074951171875 2206.10693359375 2181.208984375 2149.760986328125 2126.56298828125 2105.174072265625 2088.77587890625 2071.2880859375 2056.7900390625 2034.7110595703125 2010.373046875 1988.9449462890625 1973.3370361328125 1957.3790283203125 1940.0799560546875 1918.7220458984375 1895.4639892578125 1873.416015625 1846.968017578125 1823.279052734375 1813.8809814453125 1816.123046875 1841.4749755859375 1861.95703125 1857.738037109375 1852.68994140625 1849.7220458984375 1844.843994140625 1843.115966796875 1838.717041015625 1836.3189697265625 1833.1710205078125 1831.31298828125 1830.2249755859375 1829.4659423828125 1827.7679443359375 1821.5400390625 1820.9520263671875 1821.093994140625 1829.2249755859375 1851.0469970703125 1873.8189697265625 1887.071044921875 1894.60302734375 1901.31396484375 1903.8060302734375 1903.14794921875 1903.68994140625 1901.8509521484375 1900.843017578125 1894.5350341796875 1891.2969970703125 1887.8289794921875
3173.02294921875 3169.343017578125 3169.134033203125 3181.714111328125 3197.904052734375 3207.97509765625 3186.68505859375 3165.9560546875 3154.1259765625 3149.987060546875 3146.527099609375 3138.20703125 3148.008056640625 3158.568115234375 3163.759033203125 3159.759033203125 3173.339111328125 3193.489990234375 3216.919921875 3204.841064453125 3194.631103515625 3181.052001953125 3170.342041015625 3164.35302734375 3148.1630859375 3133.593994140625 3124.455078125 3124.10498046875 3113.986083984375 3103.02587890625 3090.10693359375 3071.886962890625 3049.837890625 3041.239013671875 3039.698974609375 3033.8798828125 3022.199951171875 3014.31103515625 3012.240966796875 2990.241943359375 2956.462890625 2932.403076171875 2920.18408203125 2922.89404296875 2928.715087890625 2922.705078125 2914.756103515625 2917.197021484375 2929.376953125 2938.97802734375 2950.22802734375 2954.3291015625 2958.8701171875 2969.510009765625 2977.4609375 2977.700927734375 2990.931884765625 3050.431884765625 3073.952880859375 3091.884033203125 3082.493896484375 3068.635009765625 3045.14501953125 3063.64599609375 3074.70703125 3136.7470703125 3108.64794921875 3128.278076171875 3177.89892578125 3206.118896484375 3224.010009765625 3243.260986328125 3276.0810546875 3276.73193359375 3263.922119140625 3255.48291015625 3236.18408203125 3223.013916015625 3210.304931640625 3189.324951171875 3152.926025390625 3125.4970703125 3099.737060546875 3075.5380859375 3051.97802734375 3038.989013671875 3028.408935546875 3018.4599609375 3010.160888671875 2998.111083984375 2989.672119140625 2985.52197265625 2978.8330078125 2966.3740234375 2957.73388671875 2948.385009765625 2944.47509765625 2941.166015625 2924.906982421875 2917.287109375 2907.55810546875 2907.80810546875 2909.299072265625 2907.5390625 2910.199951171875 2908.760986328125 2912.072021484375 2913.29296875 2916.824951171875 2913.865966796875 2891.51806640625 2884.010009765625 2883.2509765625 2888.322998046875 2893.23388671875 2892.345947265625 2893.1669921875 2894.388916015625 2903.47998046875 2903.751953125 2917.114013671875 2943.5458984375 2963.447021484375 2978.0791015625 2947.449951171875 2931.802001953125 2948.29296875 2992.455078125 3014.007080078125 3050.947998046875 3072.219970703125 3076.881103515625 3066.923095703125 3068.8740234375 3061.89599609375 3058.636962890625 3031.62890625 3010.39697265625 2993.12890625 2968.6708984375 2945.943115234375 2923.054931640625 2901.10595703125 2880.66796875 2855.659912109375 2835.112060546875 2813.053955078125 2788.594970703125 2761.297119140625 2740.779052734375 2718.821044921875 2698.242919921875 2678.924072265625 2659.89599609375 2644.89794921875 2632.360107421875 2608.48193359375 2584.012939453125 2561.0849609375 2543.677001953125 2528.589111328125 2519.5810546875 2512.592041015625 2506.654052734375 2497.7958984375 2487.827880859375 2478.8701171875 2467.81103515625 2457.29296875 2444.875 2432.2470703125 2432.118896484375 2421.449951171875 2401.781982421875 2382.35400390625 2365.446044921875 2350.298095703125 2337.549072265625 2322.450927734375 2305.212890625 2291.264892578125 2284.76708984375 2278.43798828125 2271.02001953125 2263.322021484375 2250.553955078125 2240.916015625 2238.507080078125 2244.509033203125 2251.551025390625 2258.85302734375 2274.60498046875 2294.3359375 2317.498046875 2337.550048828125 2347.7119140625 2357.97412109375 2358.5048828125 2337.876953125 2317.30908203125 2294.910888671875 2273.81298828125 2254.14404296875 2234.9560546875 2214.2080078125 2192.43994140625 2157.172119140625 2133.73291015625 2122.10498046875 2104.967041015625 2088.14892578125 2066.739990234375 2042.6319580078125 2014.6939697265625 2000.5360107421875 1984.2779541015625 1964.779052734375 1947.010986328125 1924.9329833984375 1900.0350341796875 1876.0469970703125 1848.0880126953125 1822.0899658203125 1805.802001953125 1805.5439453125 1825.3360595703125 1843.866943359375 1854.3389892578125 1850.970947265625 1847.093017578125 1842.324951171875 1839.0660400390625 1836.0980224609375 1832.949951171875 1831.842041015625 1830.114013671875 1828.2750244140625 1826.68701171875 1823.76904296875 1818.7010498046875 1818.9820556640625 1820.0240478515625 1825.0159912109375 1845.427978515625 1866.75 1877.98095703125 1887.4029541015625 1891.2650146484375 1892.487060546875 1892.218994140625 1892.199951171875 1893.3719482421875 1892.114013671875 1887.4560546875 1883.8780517578125 1881.1290283203125
3165.3330078125 3160.6630859375 3159.10400390625 3168.56396484375 3185.10498046875 3208.195068359375 3183.0458984375 3154.385986328125 3141.385986328125 3133.1669921875 3131.8369140625 3123.867919921875 3117.298095703125 3132.068115234375 3139.4990234375 3141.0791015625 3151 3175.25 3194.60107421875 3176.071044921875 3181.27099609375 3174.98193359375 3159.972900390625 3156.373046875 3149.14404296875 3126.6640625 3114.405029296875 3112.52587890625 3106.0458984375 3093.237060546875 3085.576904296875 3070.617919921875 3053.758056640625 3045.10888671875 3036.18994140625 3029.2900390625 3026.15087890625 3020.930908203125 3014.7119140625 2984.08203125 2955.27294921875 2928.1240234375 2911.444091796875 2904.3349609375 2909.985107421875 2913.02587890625 2909.386962890625 2909.386962890625 2917.7080078125 2920.947998046875 2934.549072265625 2942.360107421875 2943.25 2951.2109375 2956.740966796875 2955.822021484375 2951.83203125 2985.403076171875 3027.553955078125 3054.424072265625 3052.364990234375 3033.875 3022.095947265625 3041.866943359375 3050.257080078125 3067.137939453125 3092.2880859375 3142.819091796875 3171.239990234375 3192.610107421875 3213.15087890625 3235.950927734375 3260.501953125 3310.552001953125 3288.222900390625 3261.214111328125 3241.493896484375 3222.514892578125 3211.215087890625 3199.8359375 3172.326904296875 3138.97705078125 3113.887939453125 3083.14794921875 3063.509033203125 3050.3701171875 3040.72998046875 3028.551025390625 3015.62109375 3005.221923828125 2993.06298828125 2978.133056640625 2971.864013671875 2963.384033203125 2964.155029296875 2957.18505859375 2949.196044921875 2947.35693359375 2934.487060546875 2917.55810546875 2910.35791015625 2904.118896484375 2902.2099609375 2896.2099609375 2899.200927734375 2910.470947265625 2918.5419921875 2915.174072265625 2913.9560546875 2910.81689453125 2887.5791015625 2884.760009765625 2875.931884765625 2878.68310546875 2886.3349609375 2888.60595703125 2890.2080078125 2885.469970703125 2887.9609375 2889.903076171875 2881.60498046875 2906.22607421875 2920.468017578125 2934.489013671875 2921.48095703125 2900.29296875 2935.513916015625 2985.926025390625 3007.346923828125 3048.80908203125 3075.699951171875 3062.701904296875 3048.64306640625 3038.7451171875 3037.326904296875 3040.97802734375 3033.469970703125 3011.197998046875 2996.3798828125 2972.98193359375 2948.3740234375 2922.5048828125 2900.06689453125 2878.05908203125 2856.700927734375 2834.383056640625 2816.6240234375 2794.3759765625 2760.16796875 2739.47998046875 2717.83203125 2697.81298828125 2679.735107421875 2661.616943359375 2644.468994140625 2627.9609375 2609.4619140625 2590.3740234375 2564.2060546875 2549.738037109375 2538.52001953125 2526.56103515625 2507.032958984375 2499.364990234375 2490.777099609375 2483.089111328125 2474.35009765625 2460.822021484375 2457.194091796875 2445.256103515625 2421.55810546875 2412.299072265625 2406.430908203125 2384.39306640625 2368.675048828125 2352.3369140625 2336.64794921875 2322.18994140625 2314.072021484375 2303.73388671875 2293.5859375 2285.136962890625 2277.259033203125 2264.89111328125 2256.572998046875 2249.485107421875 2237.906005859375 2228.2080078125 2232.679931640625 2239.662109375 2247.47412109375 2261.0849609375 2280.18701171875 2299.118896484375 2320.051025390625 2329.992919921875 2340.904052734375 2351.35595703125 2343.137939453125 2323.919921875 2300.172119140625 2283.123046875 2261.405029296875 2241.287109375 2216.6689453125 2186.7509765625 2165.23193359375 2151.843994140625 2134.0859375 2113.72802734375 2093.589111328125 2072.0810546875 2050.8330078125 2032.0250244140625 2008.6070556640625 1992.1280517578125 1973.52001953125 1954.4019775390625 1928.2740478515625 1904.5360107421875 1878.68701171875 1845.97900390625 1820.4210205078125 1798.262939453125 1792.85498046875 1807.4959716796875 1826.998046875 1837.8599853515625 1847.3719482421875 1842.4930419921875 1839.89501953125 1837.7569580078125 1834.489013671875 1831.260986328125 1828.052001953125 1828.2139892578125 1826.8160400390625 1825.258056640625 1823.8800048828125 1816.791015625 1817.802978515625 1818.7950439453125 1820.8470458984375 1842.1090087890625 1861.6099853515625 1872.4720458984375 1878.89404296875 1881.9859619140625 1884.3070068359375 1883.259033203125 1882.281005859375 1884.552978515625 1883.635009765625 1879.10595703125 1875.8179931640625 1874.199951171875
3157.782958984375 3152.5439453125 3148.573974609375 3152.993896484375 3166.175048828125 3204.825927734375 3170.2060546875 3143.825927734375 3131.486083984375 3122.115966796875 3115.885986328125 3110.0859375 3105.0869140625 3110.237060546875 3118.126953125 3125.596923828125 3129.14697265625 3142.0869140625 3168.056884765625 3151.18798828125 3187.097900390625 3167.5380859375 3156.80908203125 3146.799072265625 3137.01904296875 3124.3701171875 3108.9599609375 3102.48095703125 3102.06103515625 3104.06103515625 3096.33203125 3080.342041015625 3056.322021484375 3038.923095703125 3028.903076171875 3025.513916015625 3023.694091796875 3028.093994140625 3034.52490234375 3012.044921875 2962.115966796875 2924.14599609375 2897.68603515625 2885.56689453125 2889.616943359375 2900.087890625 2901.798095703125 2901.988037109375 2906.5791015625 2905.388916015625 2915.27001953125 2934.43994140625 2927.610107421875 2933.611083984375 2937.27099609375 2936.681884765625 2931.89208984375 2930.9619140625 2989.173095703125 3022.79296875 3018.653076171875 3004.803955078125 3014.81396484375 3021.22509765625 3037.175048828125 3061.364990234375 3099.635986328125 3134.926025390625 3165.927001953125 3189.5869140625 3206.777099609375 3225.847900390625 3252.077880859375 3298.259033203125 3317.4189453125 3282.18896484375 3247.10009765625 3226.860107421875 3209.94091796875 3197.031005859375 3170.541015625 3148.802001953125 3129.73193359375 3108.712890625 3083.02294921875 3065.73291015625 3052.013916015625 3036.573974609375 3020.235107421875 3009.625 2999.304931640625 2983.345947265625 2980.595947265625 2975.85595703125 2968.787109375 2960.047119140625 2956.26806640625 2946.318115234375 2933.2080078125 2921.39892578125 2913.85888671875 2900.3701171875 2891.6298828125 2885.669921875 2880.31103515625 2912.611083984375 2919.132080078125 2905.68408203125 2898.285888671875 2888.548095703125 2871.9189453125 2869.56103515625 2849.89306640625 2859.9951171875 2852.3369140625 2891.43798828125 2896.780029296875 2883.152099609375 2876.6240234375 2871.716064453125 2864.988037109375 2865.81005859375 2869.751953125 2885.25390625 2874.784912109375 2913.576904296875 2918.59912109375 2956.131103515625 2994.712890625 3050.98388671875 3079.555908203125 3054.657958984375 3040.409912109375 3025.511962890625 3016.072998046875 3025.4150390625 3023.633056640625 3011.60888671875 2992.81103515625 2973.152099609375 2946.85400390625 2924.696044921875 2903.26806640625 2880.77001953125 2858.90087890625 2836.992919921875 2817.264892578125 2783.677001953125 2763.09912109375 2742.570068359375 2722.73193359375 2703.593994140625 2682.055908203125 2661.4580078125 2642.030029296875 2623.160888671875 2605.802978515625 2583.925048828125 2564.677001953125 2550.12890625 2542.070068359375 2531.2919921875 2509.00390625 2492.8759765625 2482.30810546875 2473.208984375 2463.64111328125 2456.452880859375 2449.0048828125 2435.26708984375 2421.718017578125 2408.669921875 2386.701904296875 2377.18408203125 2361.3759765625 2348.596923828125 2337.138916015625 2324.160888671875 2312.512939453125 2300.31494140625 2290.97607421875 2281.097900390625 2269.860107421875 2259.362060546875 2250.343994140625 2240.39501953125 2233.037109375 2223.589111328125 2221.02099609375 2229.7529296875 2234.9951171875 2250.35595703125 2267.947998046875 2286.1201171875 2305.402099609375 2311.133056640625 2326.614990234375 2338.39697265625 2343.989013671875 2335.611083984375 2315.672119140625 2290.52392578125 2270.14599609375 2248.41796875 2220.208984375 2196.841064453125 2177.85302734375 2160.695068359375 2141.376953125 2121.60791015625 2103.72998046875 2086.06201171875 2062.083984375 2041.89599609375 2020.737060546875 1999.198974609375 1980.4310302734375 1950.383056640625 1924.7349853515625 1899.43603515625 1873.508056640625 1851.469970703125 1821.02197265625 1794.6829833984375 1784.60498046875 1793.3570556640625 1806.2989501953125 1817.8709716796875 1829.2320556640625 1833.2239990234375 1838.426025390625 1835.1280517578125 1833.43994140625 1830.31103515625 1826.7130126953125 1825.4949951171875 1829.0870361328125 1825.16796875 1825.489990234375 1815.58203125 1816.2640380859375 1815.7659912109375 1820.177001953125 1839.4090576171875 1856.0009765625 1868.4429931640625 1872.925048828125 1874.8060302734375 1879.9580078125 1876.260009765625 1877.77197265625 1874.9029541015625 1873.93505859375 1873.6070556640625 1867.3089599609375 1864.801025390625
3149.783935546875 3149.083984375 3146.31494140625 3145.294921875 3152.64599609375 3162.02587890625 3155.285888671875 3140.26611328125 3116.906982421875 3108.156982421875 3100.197021484375 3093.616943359375 3091.906982421875 3093.177001953125 3096.568115234375 3102.97802734375 3102.137939453125 3112.738037109375 3131.447998046875 3133.508056640625 3168.989013671875 3158.638916015625 3147.638916015625 3128.25 3123.85009765625 3114.18994140625 3110.85107421875 3107.4609375 3105.48193359375 3104.6220703125 3096.14208984375 3086.173095703125 3064.962890625 3044.884033203125 3026.654052734375 3016.924072265625 3012.39501953125 3011.175048828125 3012.506103515625 3006.85595703125 2973.865966796875 2921.346923828125 2894.68701171875 2876.887939453125 2875.35791015625 2882.367919921875 2893.3291015625 2894.8291015625 2895.2900390625 2893.719970703125 2897.570068359375 2917.5810546875 2911.301025390625 2914.631103515625 2917.912109375 2916.052001953125 2911.0830078125 2909.012939453125 2963.403076171875 2979.533935546875 2977.263916015625 2982.885009765625 2988.544921875 3003.425048828125 3033.595947265625 3057.7958984375 3106.787109375 3126.826904296875 3150.636962890625 3175.9580078125 3197.498046875 3221.029052734375 3249.22900390625 3290.51904296875 3322.5 3297.02001953125 3260.4609375 3235.950927734375 3216.760986328125 3192.362060546875 3169.81201171875 3152.60205078125 3135.123046875 3117.85302734375 3097.884033203125 3087.0439453125 3078.803955078125 3049.47509765625 3035.794921875 3019.946044921875 3006.0458984375 2985.14599609375 2981.26708984375 2978.987060546875 2974.867919921875 2967.488037109375 2954.7080078125 2945.779052734375 2933.208984375 2918.739990234375 2916.52001953125 2898.35009765625 2882.180908203125 2873.0810546875 2859.6708984375 2898.991943359375 2906.0830078125 2887.485107421875 2875.677001953125 2865.2080078125 2853.489990234375 2845.132080078125 2819.9541015625 2812.446044921875 2828.037109375 2883.7490234375 2886.160888671875 2885.18310546875 2870.31494140625 2849.3359375 2848.138916015625 2847.541015625 2847.681884765625 2843.5439453125 2858.115966796875 2881.39794921875 2895.81005859375 2932.35107421875 2979.423095703125 3018.52490234375 3054.81689453125 3048.68896484375 3027.37109375 3013.8720703125 3009.884033203125 3005.64599609375 3010.81689453125 3000.52001953125 2981.98095703125 2963.77294921875 2942.965087890625 2921.93701171875 2903.589111328125 2881.780029296875 2857.52197265625 2836.654052734375 2813.81591796875 2789.998046875 2768.888916015625 2749.791015625 2730.242919921875 2708.324951171875 2688.507080078125 2669.318115234375 2649 2625.592041015625 2605.464111328125 2584.8759765625 2562.45703125 2546.7890625 2539.60107421875 2531.403076171875 2518.764892578125 2499.237060546875 2480.577880859375 2469.050048828125 2462.471923828125 2455.6240234375 2445.756103515625 2435.656982421875 2422.87890625 2408.85107421875 2397.3330078125 2384.81494140625 2373.3359375 2358.847900390625 2345.300048828125 2335.281982421875 2326.50390625 2319.235107421875 2308.4169921875 2293.80908203125 2284.410888671875 2276.48291015625 2266.56396484375 2249.56591796875 2231.5380859375 2220.989990234375 2211.14208984375 2214.573974609375 2217.844970703125 2231.126953125 2255.259033203125 2269.6708984375 2288.173095703125 2294.98388671875 2312.5458984375 2327.907958984375 2339.81005859375 2333.220947265625 2316.472900390625 2303.68505859375 2280.717041015625 2255.827880859375 2230.64990234375 2207.781982421875 2189.39404296875 2171.35595703125 2152.406982421875 2129.928955078125 2108.031005859375 2088.9130859375 2067.514892578125 2045.14599609375 2018.5679931640625 1996.489990234375 1977.6419677734375 1954.383056640625 1928.4749755859375 1912.386962890625 1889.3690185546875 1863.7110595703125 1828.112060546875 1793.6240234375 1780.2259521484375 1773.3179931640625 1777.5400390625 1792.1910400390625 1801.593017578125 1807.2249755859375 1822.93701171875 1831.177978515625 1829.3800048828125 1827.1619873046875 1825.083984375 1823.0260009765625 1828.626953125 1825.489013671875 1825.6610107421875 1814.5830078125 1815.06494140625 1814.0560302734375 1816.748046875 1835.780029296875 1851.4219970703125 1862.52294921875 1868.094970703125 1868.0870361328125 1872.3289794921875 1869.760986328125 1869.06201171875 1867.1939697265625 1867.10595703125 1866.14794921875 1858.1390380859375 1854.4510498046875
3142.323974609375 3142.735107421875 3141.764892578125 3136.555908203125 3143.527099609375 3160.35693359375 3149.217041015625 3134.906982421875 3114.527099609375 3091.468017578125 3084.427978515625 3078.008056640625 3076.89794921875 3077.347900390625 3082.258056640625 3082.708984375 3079.37890625 3083.339111328125 3094.76904296875 3105.4189453125 3135.799072265625 3135.52001953125 3137.3798828125 3133.070068359375 3116.291015625 3113.6708984375 3111.422119140625 3110.781982421875 3109.501953125 3109.923095703125 3102.572998046875 3096.013916015625 3082.924072265625 3061.614013671875 3034.945068359375 3017.02490234375 3005.196044921875 2996.60595703125 2993.76611328125 2993.806884765625 2970.51708984375 2918.8779296875 2894.3779296875 2874.887939453125 2866.158935546875 2868.6689453125 2881.27001953125 2887.85009765625 2887.340087890625 2883.071044921875 2886.87109375 2903.2109375 2896.0419921875 2896.5419921875 2898.0830078125 2896.623046875 2892.14306640625 2886.884033203125 2905.174072265625 2959.77490234375 2959.02490234375 2962.97509765625 2974.76611328125 2983.006103515625 3005.136962890625 3052.56689453125 3089.007080078125 3129.177978515625 3149.327880859375 3176.93896484375 3200.868896484375 3226.9189453125 3259.510009765625 3293.9599609375 3321.22998046875 3307.85107421875 3281.821044921875 3245.402099609375 3224.73193359375 3201.862060546875 3182.653076171875 3165.89306640625 3147.7939453125 3125.93408203125 3113.02392578125 3110.97509765625 3095.044921875 3067.926025390625 3044.055908203125 3036.2958984375 3022.866943359375 3003.697021484375 2980.4580078125 2972.068115234375 2969.907958984375 2969.718994140625 2961.708984375 2948.279052734375 2933.5400390625 2916.639892578125 2904.381103515625 2896.010986328125 2877.490966796875 2850.281982421875 2837.241943359375 2870.952880859375 2886.944091796875 2871.945068359375 2862.93701171875 2842.138916015625 2837.90087890625 2829.992919921875 2801.843994140625 2792.845947265625 2806.66796875 2871.580078125 2863.802001953125 2861.762939453125 2858.885009765625 2842.136962890625 2830.830078125 2828.10107421875 2824.8330078125 2822.02490234375 2831.31689453125 2840.489013671875 2867.3798828125 2912.011962890625 2962.50390625 3008.575927734375 3020.76806640625 3044.529052734375 3021.591064453125 3008.5830078125 3004.715087890625 2998.14697265625 2994.02099609375 2977.8701171875 2963.001953125 2949.89404296875 2932.716064453125 2918.3779296875 2901.158935546875 2879.85107421875 2861.4130859375 2838.18505859375 2816.427001953125 2793.5380859375 2776.43994140625 2761.81201171875 2737.283935546875 2716.885986328125 2697.467041015625 2677.87890625 2658.4208984375 2635.54296875 2614.705078125 2592.055908203125 2570.318115234375 2550.489990234375 2536.77197265625 2527.093994140625 2518.666015625 2509.35693359375 2491.18896484375 2468.930908203125 2455.693115234375 2453.14501953125 2441.196044921875 2433.758056640625 2423.4599609375 2412.721923828125 2404.18408203125 2392.31494140625 2378.386962890625 2367.759033203125 2354.861083984375 2346.373046875 2339.763916015625 2326.885986328125 2313.4580078125 2302.97998046875 2295.81201171875 2278.98388671875 2262.0849609375 2246.51708984375 2230.089111328125 2214.131103515625 2206.712890625 2199.9140625 2199.72607421875 2206.197998046875 2240.949951171875 2245.511962890625 2257.822998046875 2265.044921875 2287.287109375 2308.8291015625 2324 2310.402099609375 2282.194091796875 2280.035888671875 2264.64794921875 2258.55908203125 2236.81103515625 2213.992919921875 2192.114990234375 2171.8359375 2153.22802734375 2133.56005859375 2111.302001953125 2095.823974609375 2072.635009765625 2045.0169677734375 2022.0989990234375 1999.470947265625 1976.9219970703125 1958.4639892578125 1935.1259765625 1912.3079833984375 1889.780029296875 1862.1810302734375 1829.60302734375 1801.4849853515625 1774.136962890625 1769.4090576171875 1763.3900146484375 1765.342041015625 1778.2540283203125 1786.9659423828125 1803.7669677734375 1828.6190185546875 1826.7509765625 1824.133056640625 1822.2249755859375 1820.115966796875 1819.8780517578125 1822.969970703125 1825.7320556640625 1813.6929931640625 1812.574951171875 1812.0069580078125 1814.8590087890625 1831.801025390625 1846.6920166015625 1855.4439697265625 1859.2960205078125 1860.0679931640625 1859.51904296875 1857.7110595703125 1858.7030029296875 1856.125 1852.0469970703125 1852.3680419921875 1847.7900390625 1843.2220458984375
3140.4150390625 3143.4560546875 3138.035888671875 3135.116943359375 3127.117919921875 3144.80810546875 3132.008056640625 3119.347900390625 3104.278076171875 3086.738037109375 3069.529052734375 3067.0791015625 3062.739013671875 3065.26904296875 3068.138916015625 3062.3291015625 3058.89892578125 3062.2099609375 3078.669921875 3082.429931640625 3096.639892578125 3105.510009765625 3119.5009765625 3141.031005859375 3123.112060546875 3113.912109375 3114.132080078125 3113.54296875 3109.3330078125 3107.52392578125 3102.444091796875 3100.884033203125 3097.344970703125 3073.364990234375 3055.506103515625 3023.14599609375 3005.216064453125 2992.846923828125 2987.826904296875 2988.6279296875 2976.427978515625 2930.14794921875 2900.10888671875 2874.0390625 2858.6689453125 2856.030029296875 2869.580078125 2883.5009765625 2880.48095703125 2876.111083984375 2877.2119140625 2893.281982421875 2888.73291015625 2877.572998046875 2878.193115234375 2877.1640625 2872.77392578125 2869.705078125 2888.405029296875 2942.925048828125 2941.305908203125 2947.89599609375 2957.06689453125 2961.89697265625 3013.81689453125 3057.318115234375 3093.197998046875 3128.7880859375 3155.968994140625 3184.39892578125 3209.81005859375 3233.530029296875 3259.050048828125 3289.680908203125 3322.031005859375 3313.1220703125 3289.77197265625 3271.471923828125 3243.29296875 3215.262939453125 3197.31396484375 3179.93408203125 3162.23388671875 3140.094970703125 3127.10498046875 3120.02587890625 3103.906005859375 3078.656005859375 3057.31689453125 3041.156982421875 3022.037109375 3005.748046875 2993.568115234375 2981.448974609375 2977.618896484375 2966.428955078125 2959.780029296875 2953.659912109375 2938.62109375 2921.260986328125 2902.7509765625 2890.8720703125 2867.912109375 2843.373046875 2816.923095703125 2832.06298828125 2827.00390625 2860.60595703125 2842.66796875 2802.43994140625 2814.700927734375 2799.56298828125 2781.324951171875 2771.596923828125 2796.9189453125 2841.321044921875 2844.011962890625 2840.464111328125 2845.166015625 2833.738037109375 2800.4599609375 2810.882080078125 2801.904052734375 2804.426025390625 2811.447998046875 2826.18896484375 2858.031005859375 2889.242919921875 2951.235107421875 2984.346923828125 3002.93798828125 3036.6298828125 3025.39208984375 3006.843994140625 2995.156005859375 2995.386962890625 2984.4130859375 2967.660888671875 2951.35302734375 2937.0849609375 2919.1259765625 2907.498046875 2896.93994140625 2878.6220703125 2861.52392578125 2840.2060546875 2816.89697265625 2797.218994140625 2785.700927734375 2768.633056640625 2750.945068359375 2730.446044921875 2715.51806640625 2690.8701171875 2666.152099609375 2644.39404296875 2620.824951171875 2599.596923828125 2582.069091796875 2562.041015625 2542.802978515625 2526.0439453125 2512.14599609375 2505.93798828125 2496.5400390625 2482.112060546875 2458.134033203125 2446.5849609375 2437.927001953125 2427.178955078125 2418.510986328125 2410.262939453125 2405.98388671875 2403.3359375 2391.847900390625 2379.5 2371.31201171875 2361.242919921875 2349.625 2337.056884765625 2322.34912109375 2303.31103515625 2286.77294921875 2271.50390625 2255.74609375 2238.947998046875 2225.139892578125 2210.511962890625 2201.06298828125 2194.574951171875 2189.927001953125 2186.718994140625 2196.12109375 2228.761962890625 2234.85400390625 2241.2060546875 2264.22802734375 2277.10009765625 2297.760986328125 2305.623046875 2273.465087890625 2264.156982421875 2248.76806640625 2233.469970703125 2234.2919921875 2223.444091796875 2201.554931640625 2175.886962890625 2155.2890625 2132.9208984375 2110.673095703125 2090.43408203125 2067.99609375 2044.4580078125 2024.1700439453125 2001.52099609375 1979.0030517578125 1959.614990234375 1940.8470458984375 1917.6290283203125 1898.25 1873.6920166015625 1837.9439697265625 1811.8260498046875 1786.237060546875 1762.489013671875 1753.6710205078125 1754.6429443359375 1758.9949951171875 1776.18603515625 1791.8680419921875 1807.75 1821.81201171875 1821.5030517578125 1819.1650390625 1818.136962890625 1816.4990234375 1818.4310302734375 1821.741943359375 1817.154052734375 1812.5260009765625 1810.197998046875 1812.4090576171875 1827.791015625 1841.7530517578125 1847.7550048828125 1851.6070556640625 1851.72802734375 1849.1099853515625 1849.9219970703125 1846.81396484375 1845.155029296875 1846.5069580078125 1841.3089599609375 1842.531005859375 1837.3330078125
3136.075927734375 3144.5869140625 3143.2470703125 3127.60693359375 3116.087890625 3111.72900390625 3106.618896484375 3097.5390625 3089.658935546875 3081.55908203125 3059.868896484375 3055.368896484375 3050.179931640625 3052.840087890625 3054.989990234375 3045.030029296875 3046 3046.800048828125 3051.27099609375 3058.2109375 3077.77099609375 3084.5810546875 3096.7119140625 3129.662109375 3133.882080078125 3123.923095703125 3107.943115234375 3113.694091796875 3106.404052734375 3101.27392578125 3103.514892578125 3103.875 3104.805908203125 3095.85595703125 3063.006103515625 3035.06689453125 3017.027099609375 3003.577880859375 2993.117919921875 2984.468017578125 2969.658935546875 2941.9990234375 2902.9189453125 2868.330078125 2848.760009765625 2844.65087890625 2859.361083984375 2871.06103515625 2871.842041015625 2868.02197265625 2868.29296875 2883.722900390625 2881.423095703125 2864.493896484375 2859.64404296875 2858.094970703125 2855.39501953125 2853.294921875 2880.676025390625 2929.535888671875 2923.156982421875 2928.9970703125 2937.636962890625 2941.41796875 2990.2080078125 3033.657958984375 3074.97900390625 3115.0791015625 3149.8798828125 3181.080078125 3208.239990234375 3237.0009765625 3267.950927734375 3286.44189453125 3291.152099609375 3283.431884765625 3275.52294921875 3264.173095703125 3260.714111328125 3248.35400390625 3224.333984375 3199.135009765625 3176.945068359375 3159.114990234375 3142.6259765625 3131.4560546875 3107.406982421875 3084.0869140625 3068.2470703125 3055.238037109375 3031.367919921875 3018.208984375 3007.819091796875 2999.529052734375 2989.47998046875 2974.820068359375 2964.89111328125 2958.7109375 2953.510986328125 2936.402099609375 2909.44189453125 2876.6220703125 2859.282958984375 2832.343017578125 2810.1640625 2796.56396484375 2804.4150390625 2810.576904296875 2802.989013671875 2778.989990234375 2795.2119140625 2770.35400390625 2758.3759765625 2753.318115234375 2759.158935546875 2800.361083984375 2809.702880859375 2815.034912109375 2822.72705078125 2822.568115234375 2777.44091796875 2799.193115234375 2782.31494140625 2784.85595703125 2793.097900390625 2816.550048828125 2842.85205078125 2883.694091796875 2909.675048828125 2939.507080078125 2970.408935546875 3001.2109375 3027.282958984375 3005.205078125 2998.22607421875 2986.468017578125 2977.537109375 2970.14208984375 2953.9541015625 2929.47509765625 2909.0869140625 2893.6689453125 2881.091064453125 2863.8330078125 2851.243896484375 2837.72607421875 2816.298095703125 2797.199951171875 2796.33203125 2784.763916015625 2766.294921875 2747.93701171875 2728.468994140625 2709.111083984375 2687.89306640625 2661.093994140625 2632.305908203125 2610.2880859375 2588.280029296875 2565.001953125 2542.722900390625 2527.405029296875 2510.85693359375 2500.138916015625 2489.361083984375 2482.282958984375 2460.464111328125 2444.736083984375 2433.447998046875 2421.570068359375 2414.60205078125 2406.322998046875 2400.85498046875 2396.677001953125 2392.4990234375 2386.0009765625 2379.951904296875 2372.134033203125 2360.14599609375 2344.60791015625 2329.080078125 2310.552001953125 2291.943115234375 2273.7548828125 2256.3369140625 2238.839111328125 2222.111083984375 2208.9619140625 2195.00390625 2189.426025390625 2182.16796875 2179.10009765625 2175.5810546875 2206.072998046875 2214.445068359375 2224.777099609375 2232.68896484375 2244.989990234375 2270.922119140625 2269.60400390625 2250.345947265625 2238.886962890625 2246.908935546875 2218.260986328125 2209.193115234375 2201.714111328125 2192.006103515625 2172.407958984375 2157.68994140625 2138.81201171875 2113.73291015625 2091.5048828125 2069.406982421875 2051.888916015625 2032 2012.592041015625 1988.9539794921875 1971.416015625 1954.2979736328125 1928.6290283203125 1904.6910400390625 1881.593017578125 1854.3050537109375 1828.7659912109375 1794.97802734375 1759 1747.1719970703125 1743.1839599609375 1745.31494140625 1760.136962890625 1778.6290283203125 1789.1309814453125 1810.842041015625 1816.1240234375 1815.6259765625 1815.2679443359375 1814.5899658203125 1815.8409423828125 1817.822998046875 1818.675048828125 1810.89697265625 1807.657958984375 1810.8699951171875 1817.7320556640625 1835.5040283203125 1840.39599609375 1841.93701171875 1841.6490478515625 1841.571044921875 1840.4830322265625 1836.073974609375 1835.345947265625 1833.998046875 1832.530029296875 1825.6610107421875 1824.4329833984375
3120.306884765625 3120.197021484375 3127.097900390625 3115.66796875 3093.299072265625 3090.799072265625 3099.610107421875 3076.43994140625 3070.85009765625 3073.659912109375 3060.77001953125 3046.389892578125 3043.719970703125 3040.970947265625 3043.180908203125 3035.94091796875 3040.970947265625 3040.5009765625 3036.90087890625 3042.172119140625 3052.842041015625 3067.382080078125 3083.451904296875 3121.52294921875 3142.23291015625 3124.783935546875 3106.7939453125 3094.7939453125 3094.675048828125 3088.284912109375 3092.89599609375 3099.31591796875 3100.676025390625 3101.636962890625 3080.7470703125 3041.26806640625 3021.80810546875 3007.748046875 2996.0791015625 2990.339111328125 2981.239013671875 2960.1298828125 2941.2099609375 2872.27099609375 2835.56103515625 2831.64111328125 2847.162109375 2861.73193359375 2862.2529296875 2860.3330078125 2862.903076171875 2876.52392578125 2875.013916015625 2855.875 2843.81494140625 2840.094970703125 2838.5458984375 2835.8359375 2862.22607421875 2913.406982421875 2901.7470703125 2911.718017578125 2918.89794921875 2922.367919921875 2968.51904296875 3034.589111328125 3106.530029296875 3111.300048828125 3122.030029296875 3165.90087890625 3197.6708984375 3215.5419921875 3256.842041015625 3258.94189453125 3260.54296875 3255.052978515625 3238.962890625 3233.553955078125 3239.27392578125 3260.544921875 3247.215087890625 3217.014892578125 3201.52587890625 3185.3759765625 3165.947021484375 3149.757080078125 3143.35693359375 3117.47802734375 3100.7880859375 3089.2490234375 3068.718994140625 3048.30908203125 3027.5400390625 3015.360107421875 3001.010009765625 2989.260986328125 2979.781005859375 2969.011962890625 2960.632080078125 2945.181884765625 2901.3330078125 2866.4130859375 2839.174072265625 2819.25390625 2798.283935546875 2773.02490234375 2769.006103515625 2767.376953125 2775.908935546875 2753.39111328125 2758.202880859375 2738.324951171875 2739.506103515625 2737.837890625 2738.719970703125 2777.27197265625 2789.10400390625 2796.0859375 2803.197021484375 2796.09912109375 2761.10205078125 2775.803955078125 2766.705078125 2765.06689453125 2776.6689453125 2804.48095703125 2841.52294921875 2856.243896484375 2875.385986328125 2911.998046875 2953.610107421875 2968.422119140625 2985.242919921875 3008.60498046875 2992.076904296875 2979.93896484375 2977.282958984375 2972.54296875 2954.093994140625 2930.676025390625 2902.387939453125 2884.409912109375 2870.701904296875 2856.242919921875 2845.425048828125 2820.717041015625 2806.089111328125 2792.051025390625 2782.072021484375 2782.73388671875 2773.676025390625 2765.6279296875 2749.72998046875 2717.931884765625 2688.693115234375 2678.264892578125 2645.5869140625 2627.10888671875 2600.5810546875 2574.302001953125 2551.22412109375 2532.966064453125 2517.278076171875 2505.929931640625 2488.701904296875 2474.863037109375 2452.175048828125 2443.85693359375 2434.4189453125 2423.6708984375 2415.58203125 2407.093994140625 2395.906005859375 2393.468017578125 2379.989990234375 2376.450927734375 2367.282958984375 2366.304931640625 2362.95703125 2353.10888671875 2335.9609375 2315.52197265625 2295.823974609375 2276.7958984375 2258.568115234375 2240.830078125 2223.1708984375 2206.73291015625 2192.125 2184.97705078125 2177.59912109375 2172.740966796875 2170.382080078125 2178.64404296875 2197.97607421875 2207.35791015625 2214.01904296875 2224.111083984375 2248.48291015625 2236.22509765625 2216.20703125 2203.738037109375 2198.449951171875 2201.721923828125 2188.452880859375 2178.635009765625 2175.177001953125 2156.718994140625 2134.950927734375 2122.31201171875 2107.404052734375 2095.5859375 2081.798095703125 2065.6689453125 2043.970947265625 2024.4129638671875 2005.18505859375 1979.18701171875 1958.5679931640625 1936.25 1910.741943359375 1886.7139892578125 1861.114990234375 1833.0169677734375 1797.8890380859375 1771.06103515625 1745.4730224609375 1734.60400390625 1734.446044921875 1746.3580322265625 1765.739990234375 1780.071044921875 1795.4830322265625 1813.2349853515625 1811.5369873046875 1811.197998046875 1812.5400390625 1814.531982421875 1814.9239501953125 1819.666015625 1810.487060546875 1809.22900390625 1804.1309814453125 1815.093017578125 1826.833984375 1832.666015625 1834.508056640625 1829.22998046875 1828.501953125 1825.9329833984375 1823.0450439453125 1821.3370361328125 1818.1090087890625 1816.9599609375 1813.6920166015625 1810.134033203125
3111.798095703125 3096.7080078125 3096.87890625 3087.708984375 3084.070068359375 3080.22998046875 3081.699951171875 3073.18994140625 3058.740966796875 3056.970947265625 3060.700927734375 3044.571044921875 3037.89111328125 3030.041015625 3028.382080078125 3030.052001953125 3033.85205078125 3035.251953125 3030.10205078125 3028.7919921875 3037.85205078125 3050.802978515625 3065.633056640625 3096.6640625 3132.823974609375 3116.884033203125 3095.89501953125 3079.675048828125 3080.135986328125 3073.49609375 3076.426025390625 3083.507080078125 3087.217041015625 3087.528076171875 3071.718017578125 3046.528076171875 3027.3291015625 3013.05908203125 3004.968994140625 2985.820068359375 2971.77001953125 2951.180908203125 2930.240966796875 2900.720947265625 2821.001953125 2822.672119140625 2837.943115234375 2851.85302734375 2851.79296875 2854.02392578125 2856.553955078125 2869.455078125 2871.235107421875 2850.625 2833.236083984375 2823.285888671875 2822.0458984375 2831.467041015625 2845.717041015625 2878.988037109375 2887.18798828125 2894.637939453125 2902.698974609375 2904.72900390625 2937.550048828125 3008.199951171875 3071.889892578125 3078.87109375 3102.720947265625 3152.69091796875 3193.58203125 3220.241943359375 3239.193115234375 3230.23291015625 3216.10302734375 3213.384033203125 3207.614013671875 3209.804931640625 3216.284912109375 3237.18505859375 3232.27587890625 3248.64599609375 3219.85693359375 3198.376953125 3191.76708984375 3173.0380859375 3166.66796875 3144.568115234375 3128.22900390625 3114.76904296875 3113.409912109375 3072.10009765625 3066.260009765625 3046.1708984375 3016.4609375 3005.552001953125 2992.241943359375 2979.322021484375 2972.443115234375 2955.443115234375 2906.60400390625 2875.134033203125 2837.43408203125 2807.344970703125 2784.514892578125 2760.044921875 2744.506103515625 2737.988037109375 2741.0400390625 2723.181884765625 2734.214111328125 2723.485107421875 2719.787109375 2722.089111328125 2722.321044921875 2729.552978515625 2751.513916015625 2786.2060546875 2784.30810546875 2779.080078125 2742.052001953125 2740.39404296875 2741.575927734375 2747.10791015625 2756.75 2790.62109375 2823.123046875 2830.864990234375 2846.64697265625 2876.5791015625 2904.87109375 2927.58203125 2948.43408203125 2988.716064453125 2998.26806640625 2987.27001953125 2979.41796875 2970.322998046875 2955.794921875 2931.906982421875 2907.779052734375 2887.12109375 2872.152099609375 2855.944091796875 2830.97607421875 2817.968017578125 2804.070068359375 2775.990966796875 2764.032958984375 2760.10498046875 2760.136962890625 2765.93896484375 2763.77099609375 2737.741943359375 2720.4541015625 2692.8359375 2667.968017578125 2632.93994140625 2613.430908203125 2592.962890625 2567.125 2544.85693359375 2527.089111328125 2507.14990234375 2492.1220703125 2469.444091796875 2451.10595703125 2441.318115234375 2435.72998046875 2430.40087890625 2419.383056640625 2411.425048828125 2400.576904296875 2386.9189453125 2375.639892578125 2369.802001953125 2365.134033203125 2364.51611328125 2359.718017578125 2354.139892578125 2339.60107421875 2319.48291015625 2299.02490234375 2279.527099609375 2260.72900390625 2242.110107421875 2224.162109375 2206.993896484375 2191.97607421875 2179.10791015625 2172.429931640625 2168.94091796875 2165.23291015625 2162.235107421875 2172.056884765625 2196.35791015625 2203.820068359375 2204.931884765625 2209.9541015625 2206.35595703125 2188.97705078125 2180.089111328125 2170.510986328125 2165.302978515625 2164.85400390625 2153.14599609375 2149.238037109375 2138.179931640625 2118.470947265625 2098.133056640625 2086.3349609375 2072.39697265625 2062.867919921875 2053.919921875 2049.052001953125 2032.9339599609375 2015.885986328125 1997.8170166015625 1971.0789794921875 1948.281005859375 1919.572998046875 1893.7939453125 1866.68603515625 1842.7679443359375 1808.6199951171875 1776.4720458984375 1753.613037109375 1731.7850341796875 1724.93701171875 1733.9090576171875 1753.8699951171875 1766.302001953125 1784.343994140625 1796.615966796875 1809.177001953125 1807.989013671875 1808.9310302734375 1811.81298828125 1812.14501953125 1814.85595703125 1810.64794921875 1806.68994140625 1796.592041015625 1807.5030517578125 1815.7249755859375 1821.616943359375 1823.9189453125 1820.4000244140625 1816.2220458984375 1813.833984375 1813.2459716796875 1811.7769775390625 1808.8690185546875 1805.6109619140625 1803.6529541015625 1800.2850341796875
3101.51806640625 3094.18896484375 3087.85888671875 3081.72998046875 3074.48095703125 3077.7109375 3073.220947265625 3063.031005859375 3054.5810546875 3049.931884765625 3046.7919921875 3047.672119140625 3033.751953125 3025.7919921875 3018.652099609375 3016.722900390625 3023.363037109375 3022.77294921875 3021.0029296875 3014.222900390625 3021.77294921875 3031.2939453125 3049.343994140625 3075.714111328125 3105.1650390625 3102.60498046875 3083.2958984375 3067.696044921875 3063.865966796875 3058.156982421875 3063.027099609375 3075.798095703125 3076.008056640625 3070.137939453125 3054.12890625 3056.5791015625 3037.55908203125 3019.780029296875 3007.22998046875 2996.40087890625 2972.260986328125 2952.361083984375 2923.77197265625 2887.52197265625 2815.572998046875 2811.992919921875 2829.18310546875 2842.22412109375 2842.60400390625 2846.384033203125 2850.47509765625 2864.10498046875 2862.06591796875 2846.305908203125 2826.966064453125 2811.037109375 2813.68701171875 2824.447998046875 2845.8779296875 2861.137939453125 2869.68896484375 2879.049072265625 2888.320068359375 2906.97998046875 2926.43994140625 2949.091064453125 3017.680908203125 3080.881103515625 3139.5419921875 3176.31201171875 3200.282958984375 3214.032958984375 3212.903076171875 3200.8740234375 3185.864013671875 3180.655029296875 3179.77490234375 3183.364990234375 3198.0458984375 3208.52587890625 3208.43603515625 3268.886962890625 3238.556884765625 3230.4580078125 3208.22802734375 3195.89794921875 3193.5791015625 3169.549072265625 3151.02001953125 3152.070068359375 3113.219970703125 3102.62109375 3078.39111328125 3049.3720703125 3020.501953125 3014.5419921875 3007.673095703125 2989.873046875 2981.742919921875 2960.783935546875 2921.72412109375 2872.22509765625 2832.284912109375 2793.875 2778.47607421875 2747.97607421875 2737.967041015625 2714.408935546875 2704.470947265625 2700.132080078125 2701.323974609375 2702.575927734375 2709.427978515625 2709.72998046875 2706.2119140625 2711.64306640625 2746.0048828125 2766.717041015625 2751.22900390625 2745.131103515625 2735.532958984375 2712.514892578125 2721.777099609375 2727.759033203125 2735.050048828125 2764.2119140625 2786.343994140625 2804.85595703125 2828.758056640625 2839.928955078125 2870.6708984375 2905.992919921875 2929.9150390625 2980.20703125 3000.14892578125 2990.780029296875 2986.35791015625 2975.053955078125 2960.736083984375 2942.577880859375 2915.64892578125 2896.381103515625 2876.633056640625 2841.804931640625 2821.987060546875 2802.428955078125 2794.860107421875 2763.27197265625 2743.884033203125 2735.2060546875 2738.367919921875 2753.30908203125 2771.15087890625 2760.072998046875 2741.284912109375 2706.287109375 2678.0791015625 2641.929931640625 2619.721923828125 2600.214111328125 2574.555908203125 2555.998046875 2536.93896484375 2519.091064453125 2497.373046875 2475.824951171875 2459.927001953125 2450.759033203125 2443.75 2434.802001953125 2425.924072265625 2416.9560546875 2402.827880859375 2388.468994140625 2374.0009765625 2366.60302734375 2363.864990234375 2359.906982421875 2355.759033203125 2354.320068359375 2336.092041015625 2318.0439453125 2298.575927734375 2279.72802734375 2260.87890625 2242.37109375 2224.133056640625 2208.56494140625 2193.45703125 2180.339111328125 2170.52001953125 2163.511962890625 2159.904052734375 2157.97607421875 2157.41796875 2179.37890625 2197.131103515625 2196.903076171875 2189.455078125 2176.0458984375 2160.748046875 2156.260009765625 2148.81201171875 2140.48291015625 2133.425048828125 2129.697021484375 2128.0390625 2119.39990234375 2103.822021484375 2078.114013671875 2067.385986328125 2051.406982421875 2039.1689453125 2031.321044921875 2026.9229736328125 2029.10498046875 2023.5660400390625 2007.22802734375 1979.199951171875 1953.9119873046875 1939.06298828125 1905.2850341796875 1872.197021484375 1843.678955078125 1814.1300048828125 1786.612060546875 1760.0040283203125 1731.7359619140625 1716.2979736328125 1720.529052734375 1737.8310546875 1754.123046875 1769.324951171875 1783.416015625 1791.248046875 1805.6300048828125 1804.9620361328125 1807.613037109375 1808.9649658203125 1808.45703125 1805.2889404296875 1798.990966796875 1792.1920166015625 1795.364013671875 1804.7960205078125 1809.18798828125 1811.708984375 1809.9410400390625 1803.032958984375 1801.8349609375 1800.135986328125 1797.0179443359375 1794.8900146484375 1792.842041015625 1790.123046875 1783.4549560546875
3100.14892578125 3096.830078125 3088.330078125 3083.37109375 3078.89208984375 3070.491943359375 3065.0419921875 3058.132080078125 3050.922119140625 3048.77197265625 3043.2529296875 3038.54296875 3035.572998046875 3024.85302734375 3015.802978515625 3010.23291015625 3009.673095703125 3011.323974609375 3018.5439453125 3016.64404296875 3008.6240234375 3016.64404296875 3036.695068359375 3048.925048828125 3068.76611328125 3083.52587890625 3068.39599609375 3047.43701171875 3038.717041015625 3031.2880859375 3032.26806640625 3054.258056640625 3058.708984375 3042.529052734375 3039.2890625 3018.570068359375 3003.159912109375 3008.160888671875 3006.541015625 2993.64111328125 2970.721923828125 2947.402099609375 2911.173095703125 2833.6630859375 2802.572998046875 2804.083984375 2821.364013671875 2832.1240234375 2835.77490234375 2838.304931640625 2840.26611328125 2851.696044921875 2849.156005859375 2834.406982421875 2816.806884765625 2803.55810546875 2804.367919921875 2821.2080078125 2834.468994140625 2845.529052734375 2854.929931640625 2866.510009765625 2883.35009765625 2903.3310546875 2924.2509765625 2964.9609375 3028.23193359375 3070.64208984375 3136.302978515625 3164.423095703125 3186.222900390625 3194.27392578125 3182.5439453125 3175.594970703125 3175.044921875 3159.8349609375 3156.805908203125 3163.02587890625 3170.35595703125 3188.826904296875 3191.037109375 3241.798095703125 3241.837890625 3235.177978515625 3224.87890625 3210.948974609375 3188.72998046875 3176.43994140625 3165.679931640625 3144.10107421875 3121.041015625 3101.881103515625 3071.971923828125 3047.001953125 3033.282958984375 3022.282958984375 3008.472900390625 2996.1640625 2983.93408203125 2948.294921875 2900.784912109375 2868.455078125 2823.39599609375 2773.5859375 2762.216064453125 2746.5869140625 2714.80810546875 2700.72900390625 2693.950927734375 2687.98291015625 2689.4951171875 2695.787109375 2698.428955078125 2696.110107421875 2691.451904296875 2691.6640625 2707.736083984375 2699.64794921875 2748.0390625 2745.111083984375 2710.174072265625 2694.785888671875 2704.447021484375 2709.37890625 2718.87109375 2737.072998046875 2769.10498046875 2783.027099609375 2812.60791015625 2815.6298828125 2844.132080078125 2881.674072265625 2928.325927734375 2959.277099609375 2987.14892578125 2981.930908203125 2975.31689453125 2974.18505859375 2962.89697265625 2936.927978515625 2911.389892578125 2876.94189453125 2852.214111328125 2831.736083984375 2808.89697265625 2786.069091796875 2758.200927734375 2744.423095703125 2728.195068359375 2720.0869140625 2721.387939453125 2742.580078125 2748.902099609375 2754.114013671875 2730.89599609375 2702.41796875 2677.80908203125 2648.010986328125 2627.27294921875 2606.97509765625 2582.97705078125 2566.657958984375 2550.81005859375 2530.58203125 2508.964111328125 2488.486083984375 2472.72802734375 2462.43896484375 2449.3310546875 2443.032958984375 2436.56494140625 2428.9169921875 2407.327880859375 2392.580078125 2377.27197265625 2370.43408203125 2365.075927734375 2361.10791015625 2356.1689453125 2349.410888671875 2330.242919921875 2313.764892578125 2295.35693359375 2277.508056640625 2259.25 2240.662109375 2225.083984375 2209.52587890625 2194.488037109375 2181.198974609375 2169.81103515625 2161.322998046875 2156.14501953125 2151.6669921875 2150.087890625 2158.6298828125 2178.0419921875 2182.864013671875 2168.39501953125 2153.697021484375 2140.218994140625 2135.720947265625 2129.241943359375 2120.493896484375 2110.406005859375 2107.39794921875 2102.9189453125 2096.410888671875 2083.373046875 2061.784912109375 2043.7669677734375 2027.6080322265625 2017.739990234375 2010.001953125 2005.0140380859375 2007.094970703125 2013.5570068359375 2005.198974609375 1988.760986328125 1968.6319580078125 1945.553955078125 1919.0760498046875 1889.748046875 1846.5889892578125 1823.6409912109375 1789.383056640625 1761.094970703125 1732.5369873046875 1709.66796875 1711.6800537109375 1722.362060546875 1736.303955078125 1753.9449462890625 1766.3570556640625 1781.51904296875 1798.281005859375 1800.33203125 1807.60400390625 1808.156005859375 1804.1280517578125 1801.5889892578125 1790.1409912109375 1787.6929931640625 1775.89501953125 1791.14697265625 1796.89794921875 1798.9200439453125 1795.9620361328125 1791.9639892578125 1789.625 1785.7769775390625 1786.3089599609375 1781.1710205078125 1775.592041015625 1773.7939453125 1771.2259521484375
3105.77001953125 3100.080078125 3092.87109375 3084.3310546875 3077.302001953125 3071.0029296875 3059.43310546875 3052.02294921875 3049.8330078125 3043.8330078125 3040.18310546875 3032.843994140625 3026.833984375 3027.674072265625 3016.634033203125 3008.634033203125 3004.467041015625 3004.467041015625 3009.2451171875 3013.5849609375 3008.014892578125 3007.304931640625 3023.01611328125 3036.81591796875 3055.56591796875 3056.987060546875 3046.757080078125 3034.6279296875 3024.697998046875 3011.16796875 3015.888916015625 3021.989013671875 3025.60888671875 3014.39990234375 3020.219970703125 3003.6708984375 2977.10107421875 2978.06103515625 2995.281982421875 2983.172119140625 2960.722900390625 2936.18310546875 2902.04296875 2809.85400390625 2795.68408203125 2799.00390625 2814.68505859375 2824.635009765625 2832.115966796875 2826.52587890625 2828.736083984375 2837.346923828125 2830.89697265625 2818.677978515625 2805.097900390625 2793.7880859375 2796.239013671875 2809.368896484375 2821.458984375 2832.72998046875 2844.43994140625 2859.531005859375 2881.31103515625 2903.490966796875 2925.322021484375 2963.491943359375 3012.403076171875 3063.282958984375 3109.123046875 3147.75390625 3179.214111328125 3178.625 3167.635009765625 3151.715087890625 3144.986083984375 3137.946044921875 3135.39599609375 3140.35693359375 3143.95703125 3151.258056640625 3191.637939453125 3226.087890625 3230.30908203125 3217.908935546875 3213.889892578125 3185.93994140625 3169.330078125 3153.881103515625 3146.740966796875 3129.051025390625 3114.98193359375 3095.612060546875 3073.14306640625 3055.79296875 3041.6630859375 3029.8740234375 3016.194091796875 3004.534912109375 2988.97509765625 2950.594970703125 2909.68603515625 2841.196044921875 2816.43603515625 2768.7470703125 2751.60693359375 2727.248046875 2699.0380859375 2688.4599609375 2682.681884765625 2680.4541015625 2684.18603515625 2687.537109375 2690.5791015625 2690.98095703125 2677.423095703125 2673.405029296875 2670.4970703125 2660.028076171875 2656.06005859375 2674.751953125 2676.054931640625 2679.095947265625 2687.587890625 2693.5400390625 2708.902099609375 2729.884033203125 2752.405029296875 2766.777099609375 2783.708984375 2801.7509765625 2841.81298828125 2879.93505859375 2911.06591796875 2962.197998046875 2962.590087890625 2963.2119140625 2962.6650390625 2966.756103515625 2957.72705078125 2924.888916015625 2893.760986328125 2863.77294921875 2837.35498046875 2808.946044921875 2779.837890625 2764.179931640625 2746.382080078125 2719.743896484375 2710.3359375 2703.47705078125 2699.14892578125 2716.7509765625 2745.032958984375 2755.675048828125 2724.385986328125 2702.657958984375 2691.219970703125 2657.83203125 2636.263916015625 2622.0458984375 2597.51708984375 2577.549072265625 2561.031005859375 2545.222900390625 2521.27490234375 2500.635986328125 2486.137939453125 2473.909912109375 2470.152099609375 2461.553955078125 2453.39599609375 2444.537109375 2424.84912109375 2411.7109375 2382.782958984375 2369.705078125 2364.927001953125 2362.197998046875 2357.110107421875 2344.73193359375 2333.674072265625 2316.52587890625 2300.037109375 2279.68896484375 2260.35107421875 2241.593017578125 2225.68505859375 2209.72705078125 2194.35791015625 2181.389892578125 2168.531982421875 2158.593994140625 2152.716064453125 2148.7470703125 2144.9990234375 2145.06103515625 2152.702880859375 2160.14404296875 2158.285888671875 2139.76806640625 2124.330078125 2113.652099609375 2111.31298828125 2101.864990234375 2091.906982421875 2084.008056640625 2077.9599609375 2073.08203125 2061.654052734375 2039.0059814453125 2024.0369873046875 2010.0989990234375 1994.9310302734375 1988.9930419921875 1984.2340087890625 1985.9659423828125 1995.6180419921875 1995.469970703125 1985.06103515625 1968.3929443359375 1947.635009765625 1926.9169921875 1899.41796875 1858.1199951171875 1826.35205078125 1795.823974609375 1766.0560302734375 1736.8470458984375 1707.489013671875 1704.1409912109375 1707.383056640625 1716.31396484375 1733.4959716796875 1749.9580078125 1773.97998046875 1788.5810546875 1794.9830322265625 1805.81494140625 1803.2469482421875 1800.1280517578125 1796.2900390625 1783.2220458984375 1775.7740478515625 1767.6650390625 1775.6669921875 1784.739013671875 1788.4310302734375 1785.052001953125 1782.2239990234375 1775.2860107421875 1772.447998046875 1766.489990234375 1761.98095703125 1757.123046875 1755.18505859375 1756.2869873046875
3101.2109375 3096.85107421875 3094.001953125 3087.072021484375 3077.93310546875 3069.222900390625 3059.31396484375 3049.73388671875 3040.823974609375 3038.73388671875 3037.513916015625 3031.864013671875 3017.98388671875 3017.094970703125 3019.044921875 3009.344970703125 3004.467041015625 3004.467041015625 3004.467041015625 3011.575927734375 3012.825927734375 3004.18603515625 3007.716064453125 3016.777099609375 3032.556884765625 3039.157958984375 3033.278076171875 3027.998046875 3018.51904296875 3001.178955078125 3000.698974609375 3003.840087890625 2999.31005859375 2994.631103515625 2989.410888671875 2971.551025390625 2958.39208984375 2946.501953125 2954.1630859375 2968.552978515625 2951.04296875 2923.23388671875 2897.823974609375 2809.8740234375 2791.10498046875 2794.39501953125 2811.60595703125 2826.736083984375 2832.0458984375 2814.927001953125 2815.39697265625 2818.18798828125 2813.657958984375 2801.43798828125 2790.80908203125 2783.0791015625 2784.908935546875 2797.830078125 2809.409912109375 2821.3310546875 2837.8310546875 2858.791015625 2880.491943359375 2903.69189453125 2926.27294921875 2946.06298828125 3007.373046875 3054.134033203125 3105.73388671875 3137.593994140625 3168.544921875 3156.284912109375 3147.385986328125 3130.76611328125 3120.256103515625 3120.01708984375 3115.447021484375 3116.85791015625 3121.5380859375 3133.43798828125 3179.198974609375 3181.589111328125 3212.458984375 3205.64990234375 3191.199951171875 3169.760986328125 3153.510986328125 3132.091064453125 3120.06201171875 3107.23193359375 3114.9130859375 3101.702880859375 3090.43310546875 3072.283935546875 3060.573974609375 3050.803955078125 3012.31494140625 2984.304931640625 2969.99609375 2939.916015625 2903.426025390625 2825.507080078125 2793.576904296875 2771.337890625 2749.1279296875 2708.488037109375 2692.279052734375 2680.7509765625 2674.702880859375 2673.2451171875 2674.7060546875 2679.5380859375 2682.159912109375 2681.221923828125 2675.60400390625 2659.114990234375 2653.287109375 2649.458984375 2638.5810546875 2642.572998046875 2657.574951171875 2664.26708984375 2671.239013671875 2681.7109375 2701.64306640625 2718.0439453125 2733.77587890625 2748.587890625 2772.989990234375 2800.652099609375 2857.802978515625 2886.514892578125 2926.507080078125 2937.489013671875 2935.990966796875 2937.443115234375 2943.24609375 2954.635986328125 2936.16796875 2907.679931640625 2874.912109375 2845.27392578125 2822.43505859375 2800.8369140625 2767.388916015625 2749.81103515625 2731.472900390625 2712.25390625 2697.06591796875 2691.30810546875 2687.489990234375 2698.882080078125 2735.114013671875 2737.965087890625 2739.806884765625 2717.37890625 2697.700927734375 2664.452880859375 2641.635009765625 2635.825927734375 2615.867919921875 2589.7099609375 2570.89208984375 2554.89404296875 2534.52490234375 2516.18701171875 2501.72900390625 2496.6708984375 2489.762939453125 2483.7451171875 2474.35595703125 2461.177978515625 2447.860107421875 2425.612060546875 2391.843994140625 2376.736083984375 2362.20703125 2353.76904296875 2340.98095703125 2331.373046875 2329.195068359375 2320.446044921875 2302.3779296875 2281.320068359375 2261.322021484375 2241.56396484375 2223.06591796875 2207.487060546875 2191.9990234375 2178.7509765625 2165.952880859375 2155.4951171875 2149.97607421875 2144.05810546875 2141.139892578125 2137.162109375 2135.864013671875 2143.844970703125 2139.85693359375 2129.049072265625 2115.051025390625 2103.201904296875 2097.944091796875 2084.805908203125 2073.968017578125 2064.928955078125 2056.321044921875 2050.64306640625 2040.864990234375 2021.385986328125 2004.137939453125 1991.6700439453125 1979.822021484375 1971.9830322265625 1966.2149658203125 1967.5069580078125 1972.948974609375 1972.9300537109375 1969.7020263671875 1961.9339599609375 1943.4859619140625 1924.636962890625 1900.759033203125 1871.8409423828125 1829.343017578125 1803.573974609375 1772.7760009765625 1730.9580078125 1708.5400390625 1693.761962890625 1692.4229736328125 1699.7650146484375 1720.64697265625 1729.3690185546875 1751.3900146484375 1760.052001953125 1785.4840087890625 1799.8360595703125 1799.5870361328125 1797.468994140625 1788.9510498046875 1771.9129638671875 1768.0340576171875 1752.39599609375 1760.498046875 1771.56005859375 1775.051025390625 1774.31298828125 1768.385009765625 1763.0870361328125 1760.3580322265625 1757.739990234375 1750.5419921875 1746.7640380859375 1744.7750244140625 1741.2469482421875
3090.721923828125 3089.181884765625 3087.1220703125 3081.873046875 3076.333984375 3068.674072265625 3059.093994140625 3048.925048828125 3039.155029296875 3032.215087890625 3030.044921875 3025.215087890625 3008.735107421875 3007.97509765625 3010.416015625 3015.506103515625 3006.906005859375 3004.467041015625 3004.467041015625 3005.095947265625 3001.966064453125 3003.947021484375 2992.366943359375 2999.197998046875 3009.827880859375 3024.39794921875 3025.958984375 3022.549072265625 3016.639892578125 2993.60009765625 2986.139892578125 2987.131103515625 2979.56103515625 2966.321044921875 2958.1220703125 2947.951904296875 2935.2529296875 2922.972900390625 2926.472900390625 2930.50390625 2933.803955078125 2914.493896484375 2878.7451171875 2796.574951171875 2787.156005859375 2792.466064453125 2809.18603515625 2825.60693359375 2823.217041015625 2804.778076171875 2799.14794921875 2802.41796875 2797.9990234375 2785.928955078125 2776.72900390625 2769.8701171875 2775.1298828125 2787.5810546875 2797.69091796875 2813.841064453125 2833.77197265625 2855.60205078125 2877.593017578125 2898.712890625 2951.113037109375 2995.263916015625 2998.243896484375 3054.964111328125 3106.655029296875 3139.054931640625 3155.156005859375 3140.77587890625 3124.7958984375 3112.757080078125 3105.677001953125 3102.76806640625 3097.26806640625 3098.597900390625 3100.4990234375 3113.208984375 3161.37890625 3143.429931640625 3173.75 3190.52099609375 3179.89111328125 3163.571044921875 3143.612060546875 3120.14208984375 3091.802001953125 3075.883056640625 3074.012939453125 3096.083984375 3078.52392578125 3056.7041015625 3024.375 3017.044921875 3013.946044921875 2974.095947265625 2949.10595703125 2918.386962890625 2852.626953125 2817.45703125 2796.01806640625 2776.278076171875 2756.2890625 2705.638916015625 2687.2099609375 2676.44189453125 2668.373046875 2665.7451171875 2666.56689453125 2671.408935546875 2671.85107421875 2672.4619140625 2668.60400390625 2656.535888671875 2639.137939453125 2633.199951171875 2633.261962890625 2629.952880859375 2640.986083984375 2649.028076171875 2656.280029296875 2672.930908203125 2689.202880859375 2702.344970703125 2719.14697265625 2759.069091796875 2776.220947265625 2802.10205078125 2842.98388671875 2893.156005859375 2911.60791015625 2914.679931640625 2912.990966796875 2911.52294921875 2924.748046875 2934.4169921875 2919.4990234375 2888.2109375 2860.701904296875 2835.50390625 2811.8359375 2792.347900390625 2759.97998046875 2740.52197265625 2721.782958984375 2704.77490234375 2688.737060546875 2679.1689453125 2677.881103515625 2677.98291015625 2694.533935546875 2717.39599609375 2742.8779296875 2730.889892578125 2707.612060546875 2674.60302734375 2651.514892578125 2642.346923828125 2622.468994140625 2600.0810546875 2583.5029296875 2565.0439453125 2551.345947265625 2535.39794921875 2523.260009765625 2517.162109375 2508.743896484375 2502.735107421875 2490.177001953125 2471.80908203125 2462.930908203125 2435.343017578125 2398.35498046875 2375.9560546875 2359.6279296875 2347.969970703125 2336.2119140625 2326.52392578125 2316.114990234375 2308.037109375 2297.62890625 2278.27099609375 2258.133056640625 2240.675048828125 2222.325927734375 2205.697998046875 2190.56005859375 2175.741943359375 2162.23388671875 2152.595947265625 2145.737060546875 2140.178955078125 2136.660888671875 2134.722900390625 2130.39404296875 2130.99609375 2131.347900390625 2118.320068359375 2109.27099609375 2093.18310546875 2082.8349609375 2072.366943359375 2058.568115234375 2054.02001953125 2047.761962890625 2034.9539794921875 2025.175048828125 2008.7869873046875 1988.0889892578125 1974.3709716796875 1967.1820068359375 1958.7939453125 1953.64599609375 1948.677978515625 1950.0589599609375 1951.821044921875 1950.56298828125 1950.824951171875 1938.7860107421875 1915.248046875 1896.3499755859375 1873.56201171875 1839.373046875 1809.905029296875 1775.636962890625 1745.93896484375 1716.5400390625 1691.3819580078125 1685.9439697265625 1684.696044921875 1698.907958984375 1716.7889404296875 1732.220947265625 1747.552978515625 1766.2149658203125 1787.5159912109375 1792.22802734375 1790.8499755859375 1780.862060546875 1762.302978515625 1754.1650390625 1737.43701171875 1746.4189453125 1759.68994140625 1762.1820068359375 1761.4940185546875 1754.115966796875 1750.2469482421875 1748.3189697265625 1744.6510009765625 1740.29296875 1738.1839599609375 1737.5560302734375 1732.97802734375
