ncols        217
nrows        33
xllcorner    642442
yllcorner    5133748
cellsize     30.000000000000
NODATA_value  -9999
2308.916015625 2286.177978515625 2264.0810546875 2239.803955078125 2213.466064453125 2193.339111328125 2174.0009765625 2149.5439453125 2128.427001953125 2100.22900390625 2081.971923828125 2066.0439453125 2052.876953125 2039.239013671875 2017.612060546875 1996.5450439453125 1975.656982421875 1955.949951171875 1935.302001953125 1909.135009765625 1896.376953125 1892.97998046875 1882.843017578125 1871.9949951171875 1872.4580078125 1868.4100341796875 1856.8330078125 1846.9449462890625 1841.0679931640625 1830.27099609375 1817.802978515625 1797.5460205078125 1774.427978515625 1751.821044921875 1730.9840087890625 1708.2860107421875 1692.759033203125 1696.9010009765625 1707.4339599609375 1716.366943359375 1722.239013671875 1723.6610107421875 1735.572998046875 1744.594970703125 1743.2869873046875 1740.0789794921875 1738.6810302734375 1730.7030029296875 1727.60595703125 1732.8179931640625 1731.6500244140625 1730.6820068359375 1734.634033203125 1733.3260498046875 1723.64794921875 1711.93994140625 1696.4219970703125 1679.89404296875 1659.2569580078125 1640.7889404296875 1638.720947265625 1635.282958984375 1631.8050537109375 1625.9969482421875 1619.6190185546875 1615.5009765625 1611.10302734375 1606.7850341796875 1602.7979736328125 1596.3199462890625 1591.1820068359375 1587.093994140625 1582.3060302734375 1576.7080078125 1567 1557.1920166015625 1550.4239501953125 1541.3260498046875 1532.3590087890625 1522.031005859375 1512.4930419921875 1501.905029296875 1486.8470458984375 1473.0889892578125 1461.1309814453125 1450.032958984375 1435.925048828125 1424.987060546875 1410.4090576171875 1402.1319580078125 1397.10400390625 1373.7259521484375 1349.9580078125 1321.8800048828125 1294.4219970703125 1273.7039794921875 1273.2359619140625 1278.3680419921875 1272.5799560546875 1264.092041015625 1256.6650390625 1248.967041015625 1239.47900390625 1228.98095703125 1218.1929931640625 1204.875 1195.5069580078125 1183.2490234375 1169.220947265625 1149.4029541015625 1139.7049560546875 1127.0379638671875 1116.4100341796875 1102.2020263671875 1087.89404296875 1079.416015625 1068.0880126953125 1059.8499755859375 1049.531982421875 1044.4530029296875 1032.68603515625 1019.87799072265625 1009.69000244140625 993.35198974609375 -9999 -9999 -9999 -9999 -9999 -9999 -9999 -9999 -9999 -9999 -9999 -9999 -9999 -9999 -9999 -9999 -9999 -9999 -9999 -9999 -9999 -9999 -9999 -9999 -9999 -9999 -9999 -9999 -9999 -9999 -9999 -9999 -9999 -9999 -9999 -9999 -9999 -9999 -9999 -9999 -9999 -9999 -9999 -9999 -9999 -9999 -9999 -9999 -9999 -9999 -9999 -9999 -9999 -9999 -9999 -9999 -9999 -9999 -9999 -9999 -9999 -9999 -9999 -9999 -9999 -9999 -9999 -9999 -9999 -9999 -9999 -9999 -9999 -9999 -9999 -9999 -9999 -9999 -9999 -9999 -9999 -9999 -9999 -9999 -9999 -9999 -9999 -9999 -9999 -9999 -9999 -9999 -9999
-9999 2277.908935546875 2261.64208984375 2243.48388671875 2215.366943359375 2189.9599609375 2167.912109375 2148.27490234375 2128.177001953125 2105.68994140625 2084.662109375 2062.804931640625 2041.0579833984375 2022.72998046875 2004.52294921875 1986.824951171875 1965.6080322265625 1945.8299560546875 1924.2030029296875 1903.4560546875 1883.22802734375 1868.73095703125 1862.6629638671875 1853.095947265625 1850.5579833984375 1847.3709716796875 1838.1639404296875 1824.845947265625 1818.458984375 1809.4210205078125 1800.573974609375 1787.60595703125 1770.93896484375 1746.302001953125 1723.6240234375 1701.487060546875 1681.3189697265625 1678.092041015625 1687.2449951171875 1698.156982421875 1700.97900390625 1705.1309814453125 1718.823974609375 1728.14599609375 1723.9580078125 1718.6400146484375 1718.092041015625 1712.0340576171875 1707.4659423828125 1713.427978515625 1712.469970703125 1714.56201171875 1720.364013671875 1718.9169921875 1712.3089599609375 1702.4610595703125 1688.81298828125 1672.4949951171875 1652.5369873046875 1631.2889404296875 1615.1409912109375 1617.093017578125 1614.2149658203125 1609.7679443359375 1602.489990234375 1596.072021484375 1592.7139892578125 1590.4959716796875 1588.637939453125 1584.06005859375 1572.741943359375 1569.6240234375 1566.7760009765625 1560.468017578125 1553.4310302734375 1546.7330322265625 1539.85498046875 1531.626953125 1518.22900390625 1508.77099609375 1497.4229736328125 1482.125 1471.5469970703125 1460.208984375 1451.2509765625 1437.9840087890625 1425.0260009765625 1410.6080322265625 1400.239990234375 1397.342041015625 1382.0340576171875 1362.2659912109375 1340.8580322265625 1313.489990234375 1293.751953125 1264.0140380859375 1257.967041015625 1260.8890380859375 1252.4210205078125 1243.9530029296875 1235.7850341796875 1231.43701171875 1225.0989990234375 1213.5909423828125 1203.623046875 1195.114990234375 1185.43701171875 1166.8389892578125 1152.572021484375 1139.364013671875 1127.35595703125 1114.4580078125 1098.43994140625 1087.9520263671875 1077.864013671875 1057.93603515625 1052.218017578125 1042.510009765625 1032.781982421875 1026.4940185546875 1015.11602783203125 1006.41802978515625 992.489990234375 981.77197265625 974.85400390625 -9999 -9999 -9999 -9999 -9999 -9999 -9999 -9999 -9999 -9999 -9999 -9999 -9999 -9999 -9999 -9999 -9999 -9999 -9999 -9999 -9999 -9999 -9999 -9999 -9999 -9999 -9999 -9999 -9999 -9999 -9999 -9999 -9999 -9999 -9999 -9999 -9999 -9999 -9999 -9999 -9999 -9999 -9999 -9999 -9999 -9999 -9999 -9999 -9999 -9999 -9999 -9999 -9999 -9999 -9999 -9999 -9999 -9999 -9999 -9999 -9999 -9999 -9999 -9999 -9999 -9999 -9999 -9999 -9999 -9999 -9999 -9999 -9999 -9999 -9999 -9999 -9999 -9999 -9999 -9999 -9999 -9999 -9999 -9999 -9999 -9999 -9999 -9999 -9999 -9999 -9999 -9999
-9999 -9999 -9999 2238.3349609375 2210.248046875 2183.6201171875 2162.383056640625 2143.2451171875 2123.05810546875 2100.031005859375 2080.712890625 2062.2958984375 2043.157958984375 2024.531005859375 2002.322998046875 1981.865966796875 1966.8189697265625 1948.48095703125 1924.384033203125 1901.3360595703125 1883.1090087890625 1859.970947265625 1841.2540283203125 1832.9969482421875 1828.8590087890625 1823.2120361328125 1820.2840576171875 1807.72705078125 1794.208984375 1786.112060546875 1779.114013671875 1765.5269775390625 1759.27001953125 1741.8719482421875 1720.324951171875 1696.0670166015625 1672.93994140625 1657.782958984375 1667.3050537109375 1677.8079833984375 1680.1600341796875 1690.60205078125 1704.9840087890625 1711.156005859375 1706.0379638671875 1696.7099609375 1698.4219970703125 1690.2750244140625 1686.987060546875 1694.1090087890625 1693.9110107421875 1700.2130126953125 1706.364990234375 1705.947021484375 1699.8189697265625 1689.740966796875 1680.6429443359375 1670.7149658203125 1649.407958984375 1626.3800048828125 1601.2320556640625 1596.1939697265625 1594.2060546875 1589.41796875 1581.6700439453125 1577.802001953125 1577.14404296875 1575.4759521484375 1571.0579833984375 1564.0909423828125 1556.5030517578125 1552.9549560546875 1550.927001953125 1544.8089599609375 1539.301025390625 1533.363037109375 1527.43505859375 1518.14697265625 1507.3690185546875 1499.220947265625 1488.1739501953125 1469.095947265625 1460.3179931640625 1449.2900390625 1432.06201171875 1420.154052734375 1407.18603515625 1396.748046875 1395.7099609375 1382.2220458984375 1364.1839599609375 1348.1259765625 1327.7889404296875 1303.6810302734375 1282.012939453125 1256.0849609375 1237.4169921875 1241.948974609375 1221.73095703125 1222.4129638671875 1219.7750244140625 1219.5069580078125 1210.6490478515625 1199.041015625 1193.9139404296875 1182.865966796875 1170.3480224609375 1154.27001953125 1137.781982421875 1123.9639892578125 1108.615966796875 1097.3580322265625 1087.2900390625 1077.281982421875 1063.9239501953125 1045.385986328125 1033.748046875 1023.9210205078125 1017.27301025390625 1012.42401123046875 1004.68597412109375 994.25799560546875 984.030029296875 974.97198486328125 966.093994140625 959.45599365234375 950.60797119140625 -9999 -9999 -9999 -9999 -9999 -9999 -9999 -9999 -9999 -9999 -9999 -9999 -9999 -9999 -9999 -9999 -9999 -9999 -9999 -9999 -9999 -9999 -9999 -9999 -9999 -9999 -9999 -9999 -9999 -9999 -9999 -9999 -9999 -9999 -9999 -9999 -9999 -9999 -9999 -9999 -9999 -9999 -9999 -9999 -9999 -9999 -9999 -9999 -9999 -9999 -9999 -9999 -9999 -9999 -9999 -9999 -9999 -9999 -9999 -9999 -9999 -9999 -9999 -9999 -9999 -9999 -9999 -9999 -9999 -9999 -9999 -9999 -9999 -9999 -9999 -9999 -9999 -9999 -9999 -9999 -9999 -9999 -9999 -9999 -9999 -9999 -9999 -9999 -9999 -9999
-9999 -9999 -9999 -9999 2210.008056640625 2186.81103515625 2162.154052734375 2144.7060546875 2126.299072265625 2104.9609375 2086.27392578125 2062.8759765625 2039.779052734375 2018.1920166015625 1995.9539794921875 1976.116943359375 1959.009033203125 1938.552001953125 1916.2840576171875 1896.47705078125 1880.2989501953125 1860.4420166015625 1835.7950439453125 1817.8170166015625 1805.8800048828125 1800.511962890625 1799.2650146484375 1794.237060546875 1776.6099853515625 1762.6929931640625 1756.0050048828125 1744.22802734375 1737.5899658203125 1731.2530517578125 1713.0350341796875 1689.4580078125 1669.6510009765625 1643.822998046875 1648.696044921875 1657.427978515625 1661.1600341796875 1677.282958984375 1690.9549560546875 1694.4169921875 1687.989013671875 1675.5009765625 1679.1429443359375 1670.875 1670.0970458984375 1674.448974609375 1676.6710205078125 1686.85302734375 1693.4560546875 1693.6280517578125 1685.800048828125 1680.27197265625 1670.803955078125 1657.7060546875 1637.47802734375 1611.8699951171875 1595.6619873046875 1570.14404296875 1575.5860595703125 1569.72802734375 1563.541015625 1560.032958984375 1558.7449951171875 1555.2669677734375 1551.009033203125 1546.3609619140625 1539.2130126953125 1536.2650146484375 1534.9169921875 1527.759033203125 1524.2010498046875 1519.1639404296875 1514.095947265625 1505.8179931640625 1497.5 1487.9620361328125 1470.89404296875 1459.89599609375 1444.39794921875 1430.9000244140625 1411.2320556640625 1402.7540283203125 1395.35595703125 1392.988037109375 1382.48095703125 1366.4329833984375 1339.60498046875 1324.7669677734375 1314.1390380859375 1305.051025390625 1283.1629638671875 1259.4150390625 1233.8270263671875 1210.8389892578125 1202.6109619140625 1202.7030029296875 1201.405029296875 1199.64794921875 1192.719970703125 1187.8819580078125 1178.9940185546875 1170.0159912109375 1161.1080322265625 1137.0799560546875 1121.9219970703125 1107.4739990234375 1095.2259521484375 1084.66796875 1074.4200439453125 1061.6219482421875 1050.7850341796875 1034.7469482421875 1021.218994140625 1012.22100830078125 1003.12298583984375 999.2139892578125 990.7860107421875 984.62799072265625 976.9000244140625 966.88201904296875 958.78399658203125 951.927001953125 943.5679931640625 933.92999267578125 -9999 -9999 -9999 -9999 -9999 -9999 -9999 -9999 -9999 -9999 -9999 -9999 -9999 -9999 -9999 -9999 -9999 -9999 -9999 -9999 -9999 -9999 -9999 -9999 -9999 -9999 -9999 -9999 -9999 -9999 -9999 -9999 -9999 -9999 -9999 -9999 -9999 -9999 -9999 -9999 -9999 -9999 -9999 -9999 -9999 -9999 -9999 -9999 -9999 -9999 -9999 -9999 -9999 -9999 -9999 -9999 -9999 -9999 -9999 -9999 -9999 -9999 -9999 -9999 -9999 -9999 -9999 -9999 -9999 -9999 -9999 -9999 -9999 -9999 -9999 -9999 -9999 -9999 -9999 -9999 -9999 -9999 -9999 -9999 -9999 -9999 -9999 -9999 -9999
-9999 -9999 -9999 -9999 -9999 2189.2119140625 2163.97412109375 2147.47705078125 2128.05908203125 2109.69189453125 2089.114990234375 2068.257080078125 2044 2021.072021484375 2000.89501953125 1978.7669677734375 1958.18994140625 1935.862060546875 1915.074951171875 1895.2080078125 1875.02001953125 1851.7330322265625 1832.074951171875 1813.8179931640625 1794.3299560546875 1781.322998046875 1778.35498046875 1770.3280029296875 1762.1910400390625 1745.873046875 1735.0860595703125 1724.8580322265625 1715.9410400390625 1710.4530029296875 1703.5260009765625 1683.01904296875 1660.571044921875 1632.5040283203125 1627.8759765625 1637.93896484375 1646.220947265625 1664.2530517578125 1673.614990234375 1678.43701171875 1671.1390380859375 1656.1910400390625 1656.9639892578125 1653.8360595703125 1651.0980224609375 1654.949951171875 1661.7919921875 1675.2340087890625 1683.0660400390625 1682.157958984375 1677.5400390625 1669.761962890625 1662.4239501953125 1648.2459716796875 1628.029052734375 1604.9410400390625 1582.29296875 1558.89501953125 1546.876953125 1550.8790283203125 1544.1009521484375 1539.2430419921875 1537.7750244140625 1535.0369873046875 1532.9189453125 1528.6309814453125 1522.4239501953125 1518.0059814453125 1518.387939453125 1512.9599609375 1508.1419677734375 1502.7440185546875 1497.5159912109375 1491.41796875 1482.219970703125 1472.362060546875 1457.6240234375 1449.0460205078125 1430.177978515625 1411.06103515625 1390.9630126953125 1385.675048828125 1390.1070556640625 1383.009033203125 1370.6610107421875 1345.123046875 1320.5250244140625 1302.9169921875 1295.3489990234375 1296.6610107421875 1276.782958984375 1255.9849853515625 1232.656982421875 1213.1300048828125 1190.781982421875 1177.6739501953125 1178.10595703125 1176.5579833984375 1176.3699951171875 1174.4219970703125 1166.884033203125 1152.2960205078125 1137.2679443359375 1122.3499755859375 1109.7120361328125 1096.4139404296875 1082.2960205078125 1069.259033203125 1064.1510009765625 1049.1929931640625 1038.10498046875 1027.43701171875 1015.5789794921875 1000.96099853515625 989.77301025390625 984.90399169921875 976.56597900390625 972.927978515625 966.40997314453125 959.6729736328125 952.2650146484375 944.8170166015625 933.15899658203125 920.9110107421875 907.85198974609375 -9999 -9999 -9999 -9999 -9999 -9999 -9999 -9999 -9999 -9999 -9999 -9999 -9999 -9999 -9999 -9999 -9999 -9999 -9999 -9999 -9999 -9999 -9999 -9999 -9999 -9999 -9999 -9999 -9999 -9999 -9999 -9999 -9999 -9999 -9999 -9999 -9999 -9999 -9999 -9999 -9999 -9999 -9999 -9999 -9999 -9999 -9999 -9999 -9999 -9999 -9999 -9999 -9999 -9999 -9999 -9999 -9999 -9999 -9999 -9999 -9999 -9999 -9999 -9999 -9999 -9999 -9999 -9999 -9999 -9999 -9999 -9999 -9999 -9999 -9999 -9999 -9999 -9999 -9999 -9999 -9999 -9999 -9999 -9999 -9999 -9999 -9999 -9999
-9999 -9999 -9999 -9999 -9999 -9999 -9999 2145.867919921875 2131.429931640625 2117.423095703125 2095.094970703125 2072.238037109375 2049.669921875 2024.9930419921875 2004.4150390625 1984.137939453125 1961.6209716796875 1939.4129638671875 1916.9659423828125 1901.498046875 1880.9510498046875 1859.7130126953125 1838.845947265625 1817.3480224609375 1797.5810546875 1776.60400390625 1756.7860107421875 1746.968994140625 1741.2010498046875 1730.0140380859375 1714.85595703125 1705.5389404296875 1694.8709716796875 1688.7039794921875 1684.4969482421875 1673.8389892578125 1653.33203125 1627.1839599609375 1606.717041015625 1617.509033203125 1636.251953125 1647.9840087890625 1655.85595703125 1660.3280029296875 1653.06005859375 1638.3819580078125 1632.4639892578125 1629.845947265625 1627.91796875 1636.489990234375 1650.27197265625 1662.875 1670.95703125 1671.468994140625 1663.5909423828125 1658.5030517578125 1649.4150390625 1640.5369873046875 1630.22900390625 1608.781005859375 1576.9429931640625 1551.35498046875 1528.406982421875 1519.6490478515625 1521.862060546875 1518.56396484375 1518.68603515625 1518.258056640625 1514.510009765625 1508.241943359375 1503.2840576171875 1501.7960205078125 1502.5579833984375 1496.8199462890625 1488.572021484375 1483.4739990234375 1479.85595703125 1473.5479736328125 1466.77099609375 1458.343017578125 1450.7149658203125 1439.4169921875 1421.458984375 1402.3310546875 1376.6929931640625 1368.375 1367.177001953125 1355.22900390625 1350.041015625 1332.3330078125 1306.7049560546875 1288.0770263671875 1281.030029296875 1278.781982421875 1265.904052734375 1248.635986328125 1228.3580322265625 1215.8800048828125 1198.7320556640625 1177.9840087890625 1151.0260009765625 1152.41796875 1158.81005859375 1157.4420166015625 1143.573974609375 1138.7259521484375 1125.2080078125 1110.3709716796875 1099.8929443359375 1086.56494140625 1073.0269775390625 1058.9990234375 1050.1009521484375 1040.7530517578125 1033.364990234375 1022.427001953125 1010.05902099609375 996.23101806640625 981.4730224609375 972.90399169921875 965.22698974609375 959.41900634765625 956.1309814453125 952.74298095703125 947.375 936.14697265625 921.8489990234375 905.791015625 893.90301513671875 886.29400634765625 -9999 -9999 -9999 -9999 -9999 -9999 -9999 -9999 -9999 -9999 -9999 -9999 -9999 -9999 -9999 -9999 -9999 -9999 -9999 -9999 -9999 -9999 -9999 -9999 -9999 -9999 -9999 -9999 -9999 -9999 -9999 -9999 -9999 -9999 -9999 -9999 -9999 -9999 -9999 -9999 -9999 -9999 -9999 -9999 -9999 -9999 -9999 -9999 -9999 -9999 -9999 -9999 -9999 -9999 -9999 -9999 -9999 -9999 -9999 -9999 -9999 -9999 -9999 -9999 -9999 -9999 -9999 -9999 -9999 -9999 -9999 -9999 -9999 -9999 -9999 -9999 -9999 -9999 -9999 -9999 -9999 -9999 -9999 -9999 -9999 -9999 -9999
-9999 -9999 -9999 -9999 -9999 -9999 -9999 -9999 2132.031005859375 2116.863037109375 2094.47607421875 2072.09912109375 2050.291015625 2029.634033203125 2011.89599609375 1995.3289794921875 1975.281005859375 1954.2340087890625 1926.3759765625 1903.7889404296875 1881.791015625 1859.64404296875 1837.386962890625 1815.8289794921875 1796.9720458984375 1777.4739990234375 1758.447021484375 1737.4990234375 1720.33203125 1710.31396484375 1699.0269775390625 1684.8590087890625 1674.4019775390625 1666.2950439453125 1662.386962890625 1660.300048828125 1644.362060546875 1623.2049560546875 1590.2769775390625 1604.030029296875 1619.9520263671875 1629.904052734375 1637.60595703125 1639.8580322265625 1635.23095703125 1618.9329833984375 1609.574951171875 1606.2469482421875 1606.5589599609375 1623.470947265625 1635.9229736328125 1648.93505859375 1655.7469482421875 1654.529052734375 1650.990966796875 1644.7230224609375 1636.7049560546875 1626.8070068359375 1618.3499755859375 1597.4720458984375 1570.5140380859375 1540.2559814453125 1518.5279541015625 1498.1600341796875 1500.1419677734375 1494.9539794921875 1497.926025390625 1498.498046875 1494.3399658203125 1488.9520263671875 1485.2939453125 1487.3060302734375 1484.198974609375 1478.6910400390625 1470.56298828125 1466.4150390625 1459.93701171875 1456.3189697265625 1452.8709716796875 1447.363037109375 1440.875 1428.616943359375 1411.3590087890625 1394.1209716796875 1375.072998046875 1352.2750244140625 1327.7569580078125 1327.8399658203125 1323.9019775390625 1321.7640380859375 1293.93603515625 1277.4580078125 1261.52001953125 1259.08203125 1250.6839599609375 1233.865966796875 1220.5679931640625 1206.3800048828125 1195.2320556640625 1175.4439697265625 1148.1259765625 1132.238037109375 1131.220947265625 1131.4630126953125 1128.0050048828125 1121.7669677734375 1113.208984375 1101.970947265625 1089.7030029296875 1075.39501953125 1064.5169677734375 1053.968994140625 1042.9110107421875 1029.79296875 1021.32501220703125 1012.73699951171875 1006.28900146484375 990.791015625 973.6729736328125 966.45501708984375 959.3070068359375 948.68902587890625 944.7509765625 944.11297607421875 934.594970703125 923.3170166015625 908.1090087890625 892.3809814453125 881.6829833984375 872.04498291015625 863.08697509765625 -9999 -9999 -9999 -9999 -9999 -9999 -9999 -9999 -9999 -9999 -9999 -9999 -9999 -9999 -9999 -9999 -9999 -9999 -9999 -9999 -9999 -9999 -9999 -9999 -9999 -9999 -9999 -9999 -9999 -9999 -9999 -9999 -9999 -9999 -9999 -9999 -9999 -9999 -9999 -9999 -9999 -9999 -9999 -9999 -9999 -9999 -9999 -9999 -9999 -9999 -9999 -9999 -9999 -9999 -9999 -9999 -9999 -9999 -9999 -9999 -9999 -9999 -9999 -9999 -9999 -9999 -9999 -9999 -9999 -9999 -9999 -9999 -9999 -9999 -9999 -9999 -9999 -9999 -9999 -9999 -9999 -9999 -9999 -9999 -9999 -9999
-9999 -9999 -9999 -9999 -9999 -9999 -9999 -9999 -9999 2116.583984375 2099.95703125 2080.509033203125 2061.552001953125 2044.9940185546875 2030.0770263671875 2002.6090087890625 1978.2919921875 1951.7249755859375 1926.366943359375 1901.18994140625 1879.261962890625 1858.2850341796875 1838.376953125 1820.050048828125 1800.4119873046875 1782.14501953125 1761.8370361328125 1740.780029296875 1723.9119873046875 1704.39501953125 1685.0379638671875 1669.010009765625 1654.032958984375 1641.0550537109375 1638.907958984375 1639.9000244140625 1630.1729736328125 1613.35595703125 1581.8680419921875 1587.010986328125 1600.262939453125 1611.5849609375 1617.467041015625 1617.3189697265625 1617.1009521484375 1602.572998046875 1584.89501953125 1580.987060546875 1590.3089599609375 1610.2110595703125 1622.85400390625 1633.345947265625 1638.758056640625 1640.2099609375 1637.6219482421875 1630.614013671875 1622.5059814453125 1613.72802734375 1594.6099853515625 1579.4720458984375 1554.4139404296875 1531.7359619140625 1508.468017578125 1488.5699462890625 1476.3819580078125 1471.85498046875 1477.5870361328125 1479.9189453125 1478.041015625 1472.31298828125 1467.2850341796875 1467.7669677734375 1465.0889892578125 1460.9010009765625 1455.822998046875 1448.114990234375 1443.39697265625 1440.3289794921875 1437.8709716796875 1436.29296875 1430.7049560546875 1413.677978515625 1400.1600341796875 1394.112060546875 1377.2840576171875 1353.865966796875 1323.9580078125 1300.27001953125 1299.9720458984375 1298.593994140625 1289.416015625 1264.248046875 1249.22998046875 1240.1820068359375 1231.5040283203125 1222.2659912109375 1210.5980224609375 1198.801025390625 1188.113037109375 1171.9649658203125 1153.5770263671875 1130.22900390625 1112.051025390625 1109.572998046875 1109.2149658203125 1103.89697265625 1093.718994140625 1091.6109619140625 1081.343017578125 1067.074951171875 1055.656982421875 1042.9090576171875 1036.760986328125 1028.02294921875 1013.32501220703125 999.88800048828125 990.54998779296875 985.4320068359375 973.364013671875 962.53497314453125 951.20697021484375 946.739013671875 928.1510009765625 935.2130126953125 923.56500244140625 910.34698486328125 893.47900390625 878.22100830078125 867.78302001953125 858.2249755859375 837.76702880859375 824.68902587890625 -9999 -9999 -9999 -9999 -9999 -9999 -9999 -9999 -9999 -9999 -9999 -9999 -9999 -9999 -9999 -9999 -9999 -9999 -9999 -9999 -9999 -9999 -9999 -9999 -9999 -9999 -9999 -9999 -9999 -9999 -9999 -9999 -9999 -9999 -9999 -9999 -9999 -9999 -9999 -9999 -9999 -9999 -9999 -9999 -9999 -9999 -9999 -9999 -9999 -9999 -9999 -9999 -9999 -9999 -9999 -9999 -9999 -9999 -9999 -9999 -9999 -9999 -9999 -9999 -9999 -9999 -9999 -9999 -9999 -9999 -9999 -9999 -9999 -9999 -9999 -9999 -9999 -9999 -9999 -9999 -9999 -9999 -9999 -9999 -9999
-9999 -9999 -9999 -9999 -9999 -9999 -9999 -9999 -9999 -9999 2097.89697265625 2083.8798828125 2064.531982421875 2046.324951171875 2029.2080078125 2008.219970703125 1982.7130126953125 1956.2550048828125 1931.72802734375 1908.010009765625 1886.9730224609375 1865.125 1842.41796875 1820.780029296875 1802.322998046875 1782.3160400390625 1766.407958984375 1751.6209716796875 1733.9329833984375 1715.7259521484375 1696.988037109375 1681.1910400390625 1661.873046875 1642.60595703125 1618.3680419921875 1620.48095703125 1612.0040283203125 1599.3360595703125 1573.5589599609375 1567.5009765625 1581.072998046875 1593.905029296875 1596.3079833984375 1595.030029296875 1597.4219970703125 1583.35400390625 1571.5360107421875 1560.89794921875 1578.18994140625 1594.072021484375 1605.7540283203125 1615.4759521484375 1622.197998046875 1622.1700439453125 1620.552001953125 1615.2440185546875 1607.4859619140625 1599.2989501953125 1584.4310302734375 1562.4530029296875 1546.2950439453125 1524.4969482421875 1501.779052734375 1479.1810302734375 1460.3330078125 1453.14501953125 1457.656982421875 1462.97900390625 1460.6309814453125 1454.35302734375 1449.85498046875 1452.3170166015625 1449.7889404296875 1445.260986328125 1439.4139404296875 1434.85595703125 1431.4580078125 1426.1400146484375 1424.81201171875 1423.843994140625 1414.916015625 1403.697998046875 1396.510009765625 1389.3919677734375 1370.884033203125 1352.166015625 1323.2080078125 1296.530029296875 1272.8719482421875 1273.9840087890625 1269.2259521484375 1256.26904296875 1234.2010498046875 1221.2530517578125 1216.2149658203125 1207.386962890625 1200.18896484375 1191.1409912109375 1180.802978515625 1167.135009765625 1144.906982421875 1130.7490234375 1111.3609619140625 1095.6429443359375 1087.675048828125 1080.18701171875 1075.7490234375 1075.220947265625 1075.2030029296875 1062.425048828125 1048.6080322265625 1036.469970703125 1027.362060546875 1018.91400146484375 1010.406005859375 997.3380126953125 981.29998779296875 969.59197998046875 968.29400634765625 963.39501953125 946.0369873046875 930.29901123046875 926.10101318359375 917.60302734375 906.57501220703125 897.3170166015625 882.448974609375 868.69097900390625 852.54302978515625 842.14501953125 819.85699462890625 800.8389892578125 787.49102783203125 -9999 -9999 -9999 -9999 -9999 -9999 -9999 -9999 -9999 -9999 -9999 -9999 -9999 -9999 -9999 -9999 -9999 -9999 -9999 -9999 -9999 -9999 -9999 -9999 -9999 -9999 -9999 -9999 -9999 -9999 -9999 -9999 -9999 -9999 -9999 -9999 -9999 -9999 -9999 -9999 -9999 -9999 -9999 -9999 -9999 -9999 -9999 -9999 -9999 -9999 -9999 -9999 -9999 -9999 -9999 -9999 -9999 -9999 -9999 -9999 -9999 -9999 -9999 -9999 -9999 -9999 -9999 -9999 -9999 -9999 -9999 -9999 -9999 -9999 -9999 -9999 -9999 -9999 -9999 -9999 -9999 -9999 -9999 -9999
-9999 -9999 -9999 -9999 -9999 -9999 -9999 -9999 -9999 -9999 -9999 2079.631103515625 2058.383056640625 2037.7659912109375 2020.14794921875 1999.490966796875 1974.4129638671875 1951.115966796875 1928.218017578125 1904.6610107421875 1883.2030029296875 1861.7860107421875 1841.208984375 1823.240966796875 1807.0439453125 1794.595947265625 1780.948974609375 1763.9310302734375 1746.1639404296875 1727.3759765625 1707.7490234375 1688.1610107421875 1669.4639892578125 1648.095947265625 1621.779052734375 1593.1619873046875 1590.654052734375 1581.636962890625 1570.1190185546875 1545.56201171875 1563.2340087890625 1572.7060546875 1572.68798828125 1573 1577.031982421875 1566.4940185546875 1552.3260498046875 1546.998046875 1563.9200439453125 1577.322998046875 1587.31494140625 1598.6669921875 1604.989013671875 1606.2110595703125 1604.4830322265625 1599.2750244140625 1590.616943359375 1577.6090087890625 1565.06103515625 1551.29296875 1529.2950439453125 1517.697021484375 1497.9189453125 1474.990966796875 1452.35302734375 1432.2850341796875 1437.41796875 1443.6600341796875 1440.011962890625 1435.3740234375 1435.5360107421875 1437.14794921875 1435.0699462890625 1429.8719482421875 1426.5140380859375 1421.3759765625 1418.488037109375 1408.739990234375 1409.60205078125 1406.5240478515625 1401.7860107421875 1397.738037109375 1390.550048828125 1374.501953125 1355.4739990234375 1332.0269775390625 1309.51904296875 1286.970947265625 1259.6729736328125 1251.6650390625 1244.967041015625 1235.0689697265625 1220.8310546875 1206.60302734375 1195.7249755859375 1193.9169921875 1191.5789794921875 1187.6710205078125 1173.532958984375 1154.7049560546875 1137.4169921875 1123.239013671875 1111.6910400390625 1095.9930419921875 1082.4150390625 1070.6180419921875 1053.5 1056.751953125 1062.2939453125 1059.6259765625 1048.0579833984375 1036.0999755859375 1021.1820068359375 1007.3740234375 996.08599853515625 986.68798828125 972.94000244140625 958.87200927734375 951.7039794921875 948.54498291015625 944.51702880859375 928.8489990234375 910.57098388671875 899.77398681640625 876.2659912109375 868.197998046875 864.29998779296875 855.61102294921875 826.90301513671875 819.5050048828125 803.11700439453125 783.198974609375 768.97100830078125 757.40301513671875 -9999 -9999 -9999 -9999 -9999 -9999 -9999 -9999 -9999 -9999 -9999 -9999 -9999 -9999 -9999 -9999 -9999 -9999 -9999 -9999 -9999 -9999 -9999 -9999 -9999 -9999 -9999 -9999 -9999 -9999 -9999 -9999 -9999 -9999 -9999 -9999 -9999 -9999 -9999 -9999 -9999 -9999 -9999 -9999 -9999 -9999 -9999 -9999 -9999 -9999 -9999 -9999 -9999 -9999 -9999 -9999 -9999 -9999 -9999 -9999 -9999 -9999 -9999 -9999 -9999 -9999 -9999 -9999 -9999 -9999 -9999 -9999 -9999 -9999 -9999 -9999 -9999 -9999 -9999 -9999 -9999 -9999 -9999
-9999 -9999 -9999 -9999 -9999 -9999 -9999 -9999 -9999 -9999 -9999 -9999 2050.634033203125 2030.3360595703125 2012.759033203125 1994.052001953125 1970.093994140625 1946.97705078125 1924.5889892578125 1903.6920166015625 1884.884033203125 1865.95703125 1848.3289794921875 1834.1219482421875 1821.4139404296875 1806.5269775390625 1788.76904296875 1769.0419921875 1748.9840087890625 1728.7569580078125 1708.5689697265625 1686.56201171875 1665.843994140625 1646.0970458984375 1623.1600341796875 1598.2020263671875 1569.9449462890625 1564.927001953125 1555.6700439453125 1535.7919921875 1543.2850341796875 1551.2569580078125 1550.8489990234375 1551.27099609375 1554.623046875 1545.614990234375 1532.386962890625 1532.8389892578125 1549.98095703125 1560.6629638671875 1571.4949951171875 1583.136962890625 1586.8389892578125 1583.5909423828125 1580.77294921875 1577.10498046875 1565.93701171875 1557.469970703125 1546.781982421875 1535.4539794921875 1518.89599609375 1499.0279541015625 1488.6700439453125 1472.9320068359375 1447.654052734375 1426.385986328125 1416.14794921875 1421 1423.4320068359375 1420.823974609375 1421.7159423828125 1421.887939453125 1420.3299560546875 1416.761962890625 1412.1240234375 1407.8759765625 1403.8179931640625 1396.8909912109375 1393.8330078125 1393.10498046875 1392.0069580078125 1386.5589599609375 1374.0009765625 1358.6529541015625 1341.4649658203125 1325.14697265625 1301.759033203125 1279.321044921875 1258.7130126953125 1241.43505859375 1222.14697265625 1213.0389404296875 1205.2010498046875 1195.093017578125 1183.2750244140625 1179.136962890625 1178.948974609375 1175.6610107421875 1164.6639404296875 1149.946044921875 1124.157958984375 1111.3800048828125 1098.9820556640625 1089.2740478515625 1083.18603515625 1074.718017578125 1059.6500244140625 1038.501953125 1045.2239990234375 1044.3060302734375 1034.248046875 1026.300048828125 1011.38201904296875 997.7239990234375 984.58599853515625 973.3480224609375 965.19000244140625 958.12200927734375 944.76397705078125 932.385986328125 930.10797119140625 921.21002197265625 910.531982421875 900.06402587890625 867.36602783203125 839.01800537109375 830.58001708984375 830.302001953125 815.76397705078125 795.125 782.71697998046875 768.26898193359375 759.791015625 751.15301513671875 743.35498046875 -9999 -9999 -9999 -9999 -9999 -9999 -9999 -9999 -9999 -9999 -9999 -9999 -9999 -9999 -9999 -9999 -9999 -9999 -9999 -9999 -9999 -9999 -9999 -9999 -9999 -9999 -9999 -9999 -9999 -9999 -9999 -9999 -9999 -9999 -9999 -9999 -9999 -9999 -9999 -9999 -9999 -9999 -9999 -9999 -9999 -9999 -9999 -9999 -9999 -9999 -9999 -9999 -9999 -9999 -9999 -9999 -9999 -9999 -9999 -9999 -9999 -9999 -9999 -9999 -9999 -9999 -9999 -9999 -9999 -9999 -9999 -9999 -9999 -9999 -9999 -9999 -9999 -9999 -9999 -9999 -9999 -9999
-9999 -9999 -9999 -9999 -9999 -9999 -9999 -9999 -9999 -9999 -9999 -9999 -9999 2026.0269775390625 2010.0799560546875 1996.2220458984375 1974.8349609375 1950.9969482421875 1933.260009765625 1913.241943359375 1894.2650146484375 1877.20703125 1862.739990234375 1847.781982421875 1830.14501953125 1811.3170166015625 1789.800048828125 1770.1519775390625 1748.8349609375 1731.637939453125 1710.5400390625 1688.6729736328125 1669.4549560546875 1650.2879638671875 1630.1199951171875 1604.79296875 1584.135009765625 1556.387939453125 1537.469970703125 1525.052978515625 1523.68505859375 1528.7769775390625 1527.718994140625 1528.4410400390625 1532.60302734375 1526.2550048828125 1513.366943359375 1520.0999755859375 1535.02197265625 1543.6240234375 1554.916015625 1564.3780517578125 1566.8699951171875 1562.56201171875 1559.2540283203125 1552.43603515625 1545.998046875 1538.719970703125 1531.031982421875 1518.593994140625 1509.9759521484375 1490.697998046875 1469.449951171875 1457.1219482421875 1444.404052734375 1422.2060546875 1397.998046875 1400.43994140625 1407.1529541015625 1406.364990234375 1405.8470458984375 1409.6590576171875 1408.8509521484375 1402.9329833984375 1394.4449462890625 1390.18701171875 1388.448974609375 1381.031005859375 1381.35302734375 1380.4449462890625 1376.0670166015625 1367.428955078125 1359.260986328125 1346.2230224609375 1332.6949462890625 1317.636962890625 1298.0389404296875 1281.490966796875 1268.4730224609375 1244.18505859375 1222.376953125 1200.260009765625 1190.4119873046875 1181.654052734375 1172.6259765625 1161.248046875 1162.760009765625 1160.1820068359375 1152.1240234375 1133.0059814453125 1109.8079833984375 1100.1600341796875 1091.4620361328125 1075.4139404296875 1067.595947265625 1061.738037109375 1059.510009765625 1039.60205078125 1025.5040283203125 1033.865966796875 1022.5579833984375 1013.65997314453125 1005.56201171875 998.2340087890625 984.916015625 972.68798828125 957.969970703125 946.1729736328125 936.7349853515625 935.10601806640625 923.5980224609375 899.19000244140625 885.77197265625 885.17401123046875 863.416015625 839.76800537109375 813.94000244140625 804.781982421875 797.4739990234375 781.81597900390625 772.5770263671875 762.01898193359375 753.57098388671875 746.2030029296875 738.2249755859375 732.3170166015625 -9999 -9999 -9999 -9999 -9999 -9999 -9999 -9999 -9999 -9999 -9999 -9999 -9999 -9999 -9999 -9999 -9999 -9999 -9999 -9999 -9999 -9999 -9999 -9999 -9999 -9999 -9999 -9999 -9999 -9999 -9999 -9999 -9999 -9999 -9999 -9999 -9999 -9999 -9999 -9999 -9999 -9999 -9999 -9999 -9999 -9999 -9999 -9999 -9999 -9999 -9999 -9999 -9999 -9999 -9999 -9999 -9999 -9999 -9999 -9999 -9999 -9999 -9999 -9999 -9999 -9999 -9999 -9999 -9999 -9999 -9999 -9999 -9999 -9999 -9999 -9999 -9999 -9999 -9999 -9999 -9999
-9999 -9999 -9999 -9999 -9999 -9999 -9999 -9999 -9999 -9999 -9999 -9999 -9999 -9999 -9999 1996.85302734375 1981.4949951171875 1962.9580078125 1943.5699462890625 1925.3929443359375 1906.9949951171875 1888.008056640625 1871.9010009765625 1853.02294921875 1832.4659423828125 1811.508056640625 1792.551025390625 1777.9229736328125 1760.5660400390625 1738.7979736328125 1717.3409423828125 1699.54296875 1677.9959716796875 1656.1080322265625 1636.3310546875 1614.60302734375 1593.7860107421875 1573.8780517578125 1555.06103515625 1536.123046875 1503.8360595703125 1505.6280517578125 1505.6199951171875 1507.592041015625 1510.31396484375 1507.5460205078125 1496.258056640625 1506.050048828125 1518.60205078125 1529.884033203125 1539.946044921875 1545.738037109375 1545.75 1543.781982421875 1538.4840087890625 1532.5660400390625 1525.3280029296875 1523.3809814453125 1513.5830078125 1503.2750244140625 1495.866943359375 1484.8289794921875 1465.31103515625 1443.2130126953125 1427.614990234375 1415.717041015625 1395.3690185546875 1379.6810302734375 1386.782958984375 1387.93505859375 1386.93701171875 1394.2989501953125 1393.740966796875 1385.383056640625 1378.5250244140625 1374.7869873046875 1374.759033203125 1367.7010498046875 1368.032958984375 1365.824951171875 1360.8570556640625 1353.699951171875 1347.3719482421875 1333.9840087890625 1318.9859619140625 1304.97802734375 1288.1400146484375 1274.2919921875 1259.7540283203125 1242.39599609375 1222.0479736328125 1200.06005859375 1179.612060546875 1169.60400390625 1163.3260498046875 1148.907958984375 1141.969970703125 1140.1419677734375 1131.85400390625 1112.1259765625 1100.0880126953125 1086.9599609375 1080.8719482421875 1068.9339599609375 1055.3060302734375 1045.907958984375 1043.22998046875 1038.7919921875 1020.833984375 1017.21600341796875 1015.92901611328125 1001.96099853515625 991.52301025390625 989.9949951171875 976.70697021484375 968.5889892578125 959.31097412109375 948.802978515625 931.905029296875 921.5260009765625 914.468017578125 894.83001708984375 860.6719970703125 854.4439697265625 852.885986328125 840.72802734375 822.25 794.13201904296875 787.6939697265625 775.6259765625 765.697998046875 758.02001953125 751.781005859375 742.41302490234375 736.68499755859375 732.5770263671875 729.76898193359375 -9999 -9999 -9999 -9999 -9999 -9999 -9999 -9999 -9999 -9999 -9999 -9999 -9999 -9999 -9999 -9999 -9999 -9999 -9999 -9999 -9999 -9999 -9999 -9999 -9999 -9999 -9999 -9999 -9999 -9999 -9999 -9999 -9999 -9999 -9999 -9999 -9999 -9999 -9999 -9999 -9999 -9999 -9999 -9999 -9999 -9999 -9999 -9999 -9999 -9999 -9999 -9999 -9999 -9999 -9999 -9999 -9999 -9999 -9999 -9999 -9999 -9999 -9999 -9999 -9999 -9999 -9999 -9999 -9999 -9999 -9999 -9999 -9999 -9999 -9999 -9999 -9999 -9999 -9999 -9999
-9999 -9999 -9999 -9999 -9999 -9999 -9999 -9999 -9999 -9999 -9999 -9999 -9999 -9999 -9999 -9999 1976.095947265625 1967.1689453125 1951.9510498046875 1934.9139404296875 1913.1259765625 1892.029052734375 1872.6810302734375 1853.5240478515625 1835.8060302734375 1819.8990478515625 1804.98095703125 1788.134033203125 1768.3360595703125 1748.8289794921875 1729.7010498046875 1707.404052734375 1687.176025390625 1664.2989501953125 1642.490966796875 1620.9840087890625 1600.5069580078125 1579.239013671875 1556.2220458984375 1531.9339599609375 1504.115966796875 1487.91796875 1486.699951171875 1487.031982421875 1488.675048828125 1488.6669921875 1475.509033203125 1491.81103515625 1506.1629638671875 1519.5050048828125 1524.39697265625 1527.9090576171875 1525.6710205078125 1524.1729736328125 1521.0550537109375 1513.967041015625 1513.218994140625 1508.8709716796875 1498.532958984375 1489.64501953125 1481.14697265625 1472.8189697265625 1462.5009765625 1446.9229736328125 1420.9749755859375 1399.5670166015625 1385.198974609375 1364.4210205078125 1368.6729736328125 1375.18505859375 1368.968017578125 1376.02001953125 1372.6719970703125 1368.64404296875 1364.196044921875 1361.1180419921875 1358.9000244140625 1348.3719482421875 1352.154052734375 1349.8060302734375 1344.0880126953125 1336.8699951171875 1328.1319580078125 1316.4539794921875 1304.3360595703125 1288.758056640625 1276.1099853515625 1263.3819580078125 1249.634033203125 1234.7659912109375 1222.248046875 1206.4599609375 1183.001953125 1165.14404296875 1145.3360595703125 1140.66796875 1128.8599853515625 1118.7020263671875 1110.803955078125 1102.89599609375 1088.0880126953125 1074.740966796875 1067.012939453125 1064.3050537109375 1049.0770263671875 1035.72900390625 1025.6610107421875 1024.123046875 1011.2449951171875 999.58697509765625 1004.78900146484375 995.70098876953125 981.2130126953125 973.2449951171875 969.12701416015625 954.91900634765625 945.6309814453125 937.24298095703125 927.85498046875 918.8060302734375 892.468017578125 883.82000732421875 864.031982421875 834.02398681640625 824.5059814453125 820.947998046875 810.989990234375 791.25201416015625 777.39398193359375 770.35601806640625 762.36798095703125 755.47998046875 748.6619873046875 739.4229736328125 735.0250244140625 730.5670166015625 729.4990234375 728.1810302734375 -9999 -9999 -9999 -9999 -9999 -9999 -9999 -9999 -9999 -9999 -9999 -9999 -9999 -9999 -9999 -9999 -9999 -9999 -9999 -9999 -9999 -9999 -9999 -9999 -9999 -9999 -9999 -9999 -9999 -9999 -9999 -9999 -9999 -9999 -9999 -9999 -9999 -9999 -9999 -9999 -9999 -9999 -9999 -9999 -9999 -9999 -9999 -9999 -9999 -9999 -9999 -9999 -9999 -9999 -9999 -9999 -9999 -9999 -9999 -9999 -9999 -9999 -9999 -9999 -9999 -9999 -9999 -9999 -9999 -9999 -9999 -9999 -9999 -9999 -9999 -9999 -9999 -9999 -9999
-9999 -9999 -9999 -9999 -9999 -9999 -9999 -9999 -9999 -9999 -9999 -9999 -9999 -9999 -9999 -9999 -9999 -9999 1954.9420166015625 1939.583984375 1916.0069580078125 1896.3289794921875 1876.81201171875 1859.9539794921875 1844.237060546875 1827.5389404296875 1810.8719482421875 1791.60400390625 1772.39697265625 1752.3690185546875 1732.6319580078125 1711.5439453125 1689.8470458984375 1667.0789794921875 1644.7919921875 1623.175048828125 1604.487060546875 1583.5 1560.33203125 1535.875 1509.2669677734375 1484.3690185546875 1465.2110595703125 1465.52294921875 1467.5050048828125 1470.4969482421875 1458.47900390625 1478.6309814453125 1494.843017578125 1502.2850341796875 1505.5069580078125 1509.3389892578125 1508.240966796875 1504.7330322265625 1503.2850341796875 1502.0369873046875 1498.529052734375 1493.241943359375 1484.303955078125 1476.7359619140625 1469.5880126953125 1460.449951171875 1450.9620361328125 1437.7239990234375 1422.0460205078125 1398.7979736328125 1375.1300048828125 1353.0419921875 1342.7740478515625 1356.2159423828125 1341.89794921875 1355.780029296875 1357.572021484375 1353.9139404296875 1349.4659423828125 1345.64794921875 1343.4000244140625 1330.81201171875 1334.9339599609375 1328.9659423828125 1323.2679443359375 1315.1199951171875 1307.001953125 1298.154052734375 1289.0460205078125 1275.0479736328125 1266.3699951171875 1253.4219970703125 1239.1739501953125 1226.886962890625 1215.3790283203125 1200.490966796875 1187.093017578125 1167.5450439453125 1147.4169921875 1127.6490478515625 1116.31103515625 1105.9029541015625 1096.89501953125 1090.8470458984375 1081.9189453125 1065.48095703125 1055.9730224609375 1050.8050537109375 1049.5469970703125 1031.7490234375 1014.56097412109375 1009.0830078125 1006.08502197265625 973.45697021484375 990.77899169921875 986.69097900390625 972.00299072265625 961.7550048828125 958.677001953125 949.64898681640625 936.3709716796875 926.14300537109375 916.53497314453125 911.09600830078125 887.7979736328125 854.3900146484375 855.63201904296875 839.3740234375 815.76702880859375 805.13897705078125 793.65997314453125 780.4219970703125 772.29400634765625 766.64599609375 759.9580078125 753.16998291015625 745.62200927734375 741.30401611328125 735.2760009765625 732.64697265625 729.22900390625 725.72100830078125 727.38299560546875 -9999 -9999 -9999 -9999 -9999 -9999 -9999 -9999 -9999 -9999 -9999 -9999 -9999 -9999 -9999 -9999 706.14501953125 -9999 -9999 -9999 -9999 -9999 -9999 -9999 -9999 -9999 -9999 -9999 -9999 -9999 -9999 -9999 -9999 -9999 -9999 -9999 -9999 -9999 -9999 -9999 -9999 -9999 -9999 -9999 -9999 -9999 -9999 -9999 -9999 -9999 -9999 -9999 -9999 -9999 -9999 -9999 -9999 -9999 -9999 -9999 -9999 -9999 -9999 -9999 -9999 -9999 -9999 -9999 -9999 -9999 -9999 -9999 -9999 -9999 -9999 -9999 -9999 -9999
-9999 -9999 -9999 -9999 -9999 -9999 -9999 -9999 -9999 -9999 -9999 -9999 -9999 -9999 -9999 -9999 -9999 -9999 -9999 1932.31494140625 1914.758056640625 1895.1700439453125 1879.6629638671875 1862.7049560546875 1845.4580078125 1824.719970703125 1805.2230224609375 1783.5050048828125 1758.998046875 1741.4100341796875 1721.9429931640625 1704.4849853515625 1686.498046875 1663.06005859375 1640.1629638671875 1613.7550048828125 1592.6280517578125 1573.260009765625 1552.623046875 1534.68505859375 1514.72802734375 1493.9200439453125 1469.751953125 1440.1739501953125 1447.3160400390625 1453.197998046875 1447.43994140625 1464.8819580078125 1477.154052734375 1482.2259521484375 1488.0479736328125 1491.3800048828125 1492.7020263671875 1488.614013671875 1489.095947265625 1483.7879638671875 1482.3499755859375 1479.83203125 1473.9840087890625 1466.8360595703125 1457.8079833984375 1448.0899658203125 1435.85205078125 1425.864013671875 1411.2860107421875 1394.0679931640625 1375.7099609375 1353.092041015625 1324.404052734375 1336.2960205078125 1326.3079833984375 1339.1199951171875 1339.241943359375 1333.2540283203125 1333.2669677734375 1323.3089599609375 1321.23095703125 1308.4530029296875 1309.06494140625 1304.8570556640625 1300.0689697265625 1293.781005859375 1289.8929443359375 1283.31494140625 1273.4169921875 1264.2490234375 1253.8609619140625 1242.6629638671875 1229.655029296875 1220.64697265625 1212.7989501953125 1193.4310302734375 1183.2330322265625 1169.7049560546875 1152.2669677734375 1126.6190185546875 1109.5909423828125 1094.133056640625 1085.0450439453125 1076.95703125 1070.8990478515625 1060.970947265625 1046.093017578125 1037.9549560546875 1037.97705078125 1033.5889892578125 1018.95098876953125 998.90301513671875 989.2550048828125 972.0369873046875 962.63897705078125 967.041015625 965.48297119140625 955.06500244140625 944.47698974609375 939.5689697265625 929.36102294921875 917.41302490234375 906.71502685546875 900.48699951171875 875.458984375 854.541015625 825.65301513671875 823.91497802734375 805.14697265625 794.43902587890625 785.9010009765625 776.28302001953125 769.073974609375 762.1259765625 756.2979736328125 747.260009765625 742.50201416015625 738.9539794921875 734.31597900390625 731.4580078125 728.01898193359375 727.4010009765625 724.8330078125 -9999 -9999 -9999 -9999 -9999 -9999 -9999 -9999 -9999 -9999 -9999 -9999 -9999 -9999 -9999 706.51300048828125 706.39501953125 698.35699462890625 695.718994140625 -9999 -9999 -9999 -9999 -9999 -9999 -9999 -9999 -9999 -9999 -9999 -9999 -9999 -9999 -9999 -9999 -9999 -9999 -9999 -9999 -9999 -9999 -9999 -9999 -9999 -9999 -9999 -9999 -9999 -9999 -9999 -9999 -9999 -9999 -9999 -9999 -9999 -9999 -9999 -9999 -9999 -9999 -9999 -9999 -9999 -9999 -9999 -9999 -9999 -9999 -9999 -9999 -9999 -9999 -9999 -9999 -9999 -9999 -9999
-9999 -9999 -9999 -9999 -9999 -9999 -9999 -9999 -9999 -9999 -9999 -9999 -9999 -9999 -9999 -9999 -9999 -9999 -9999 -9999 1905.177978515625 1887.7509765625 1871.572998046875 1855.6259765625 1839.238037109375 1819.4010009765625 1800.873046875 1770.2159423828125 1748.427978515625 1728.0810546875 1708.2030029296875 1688.8160400390625 1671.907958984375 1652.5810546875 1631.322998046875 1606.135986328125 1582.657958984375 1563.0909423828125 1545.9029541015625 1525.416015625 1507.907958984375 1491.260009765625 1466.1820068359375 1439.4940185546875 1424.0860595703125 1436.6080322265625 1432.8499755859375 1449.1319580078125 1459.81396484375 1462.5660400390625 1471.927978515625 1476.1700439453125 1475.2220458984375 1474.2740478515625 1471.3260498046875 1466.5179443359375 1464.3809814453125 1466.1629638671875 1462.614990234375 1455.866943359375 1448.1590576171875 1434.4510498046875 1422.012939453125 1413.06494140625 1399.656982421875 1383.72900390625 1361.6610107421875 1341.29296875 1314.844970703125 1313.0069580078125 1308.5389404296875 1323.8609619140625 1318.883056640625 1312.625 1308.237060546875 1301.97900390625 1298.531005859375 1290.9029541015625 1289.2650146484375 1287.136962890625 1282.5989990234375 1280.1309814453125 1276.1829833984375 1268.64501953125 1262.7669677734375 1252.5689697265625 1243.510986328125 1232.9429931640625 1223.0550537109375 1212.197021484375 1196.8489990234375 1187.77099609375 1176.2030029296875 1162.7950439453125 1149.5970458984375 1134.5889892578125 1117.2010498046875 1101.04296875 1081.9649658203125 1066.8370361328125 1057.18896484375 1052.041015625 1041.2330322265625 1027.7149658203125 1023.197021484375 1020.8690185546875 1015.041015625 997.1929931640625 980.2760009765625 964.63800048828125 948.6199951171875 943.62200927734375 944.89398193359375 945.07598876953125 938.88800048828125 926.219970703125 917.1519775390625 905.7239990234375 896.7760009765625 880.10699462890625 862.0689697265625 837.781005859375 820.23297119140625 806.07501220703125 795.49700927734375 785.7490234375 780.1409912109375 774.14300537109375 765.58502197265625 759.95599365234375 748.53802490234375 742.82000732421875 738.0419921875 734.81402587890625 731.2760009765625 728.3179931640625 726.5999755859375 724.36102294921875 724.1829833984375 723.08502197265625 -9999 -9999 -9999 -9999 -9999 -9999 -9999 -9999 -9999 -9999 -9999 -9999 -9999 706.69097900390625 707.13299560546875 705.32501220703125 696.11700439453125 695.89898681640625 698.31097412109375 -9999 -9999 -9999 -9999 -9999 -9999 -9999 -9999 -9999 -9999 -9999 -9999 -9999 -9999 -9999 -9999 -9999 -9999 -9999 -9999 -9999 -9999 -9999 -9999 -9999 -9999 -9999 -9999 -9999 -9999 -9999 -9999 -9999 -9999 -9999 -9999 -9999 -9999 -9999 -9999 -9999 -9999 -9999 -9999 -9999 -9999 -9999 -9999 -9999 -9999 -9999 -9999 -9999 -9999 -9999 -9999 -9999 -9999
-9999 -9999 -9999 -9999 -9999 -9999 -9999 -9999 -9999 -9999 -9999 -9999 -9999 -9999 -9999 -9999 -9999 -9999 -9999 -9999 -9999 1882.9010009765625 1865.404052734375 1845.5760498046875 1829.6090087890625 1809.6009521484375 1789.85400390625 1766.8060302734375 1742.3590087890625 1720.6209716796875 1701.614013671875 1681.4859619140625 1661.6290283203125 1639.1009521484375 1618.843994140625 1597.2860107421875 1574.3489990234375 1549.031005859375 1528.5140380859375 1511.14599609375 1493.928955078125 1476.9010009765625 1460.54296875 1436.5150146484375 1413.8270263671875 1418.279052734375 1415.801025390625 1431.9229736328125 1439.64501953125 1446.237060546875 1454.8690185546875 1460.8809814453125 1457.9730224609375 1457.43505859375 1455.7569580078125 1452.259033203125 1451.9310302734375 1454.282958984375 1450.9649658203125 1445.20703125 1433.989013671875 1419.7110595703125 1407.623046875 1398.60498046875 1384.467041015625 1371.3189697265625 1352.1209716796875 1326.552978515625 1301.8050537109375 1287.2569580078125 1296.68896484375 1304.9410400390625 1299.60302734375 1288.135009765625 1282.5870361328125 1283.218994140625 1278.9110107421875 1274.593017578125 1271.5050048828125 1272.9969482421875 1270.72900390625 1267.3409423828125 1263.2430419921875 1257.9749755859375 1249.89794921875 1240.3800048828125 1233.1219482421875 1225.053955078125 1212.9859619140625 1199.748046875 1191.219970703125 1180.031982421875 1166.9239501953125 1156.5760498046875 1145.1280517578125 1130.1199951171875 1119.83203125 1105.864013671875 1087.2760009765625 1068.258056640625 1053.5999755859375 1036.7220458984375 1033.803955078125 1019.8759765625 1006.0880126953125 1003.45001220703125 1003.12200927734375 992.7239990234375 973.22601318359375 956.468017578125 948.91998291015625 928.12200927734375 917.073974609375 919.8060302734375 923.51800537109375 915.3599853515625 901.08197021484375 892.083984375 873.166015625 863.2969970703125 837.79901123046875 822.041015625 808.01300048828125 797.7249755859375 788.89697265625 780.6090087890625 774.4010009765625 768.38299560546875 763.08502197265625 754.1669921875 746.03900146484375 738.989990234375 734.63201904296875 732.8740234375 728.06597900390625 726.35797119140625 724.55999755859375 723.22198486328125 718.92401123046875 716.89501953125 715.88702392578125 714.67901611328125 -9999 -9999 -9999 -9999 -9999 712.44000244140625 709.21197509765625 707.54400634765625 707.8759765625 -9999 707.6400146484375 707.09197998046875 705.87298583984375 699.04498291015625 696.197021484375 697.2490234375 698.9010009765625 -9999 -9999 -9999 -9999 -9999 -9999 -9999 -9999 -9999 -9999 -9999 -9999 -9999 -9999 -9999 -9999 -9999 -9999 -9999 -9999 -9999 -9999 -9999 -9999 -9999 -9999 -9999 -9999 -9999 -9999 -9999 -9999 -9999 -9999 -9999 -9999 -9999 -9999 -9999 -9999 -9999 -9999 -9999 -9999 -9999 -9999 -9999 -9999 -9999 -9999 -9999 -9999 -9999 -9999 -9999 -9999 -9999 -9999
-9999 -9999 -9999 -9999 -9999 -9999 -9999 -9999 -9999 -9999 -9999 -9999 -9999 -9999 -9999 -9999 -9999 -9999 -9999 -9999 -9999 -9999 -9999 -9999 1825.5689697265625 1809.9820556640625 1790.9739990234375 1772.3470458984375 1750.5789794921875 1728.7919921875 1706.7239990234375 1685.197021484375 1662.509033203125 1639.6920166015625 1616.1839599609375 1592.386962890625 1568.739990234375 1546.001953125 1527.6639404296875 1505.2569580078125 1485.239013671875 1464.8609619140625 1444.54296875 1430.9549560546875 1414.737060546875 1395.5389404296875 1397.1109619140625 1414.383056640625 1420.844970703125 1429.70703125 1440.009033203125 1445.77099609375 1445.133056640625 1443.10498046875 1441.5579833984375 1441.469970703125 1434.1319580078125 1435.89404296875 1438.0760498046875 1429.0479736328125 1416.219970703125 1405.35205078125 1394.5040283203125 1383.85595703125 1361.5679931640625 1345.1400146484375 1339.6419677734375 1320.0340576171875 1293.7259521484375 1271.6180419921875 1283.97998046875 1285.83203125 1279.4639892578125 1274.0860595703125 1270.248046875 1268.6400146484375 1264.511962890625 1260.5439453125 1258.7159423828125 1260.39794921875 1257.1300048828125 1254.112060546875 1250.85400390625 1244.946044921875 1235.41796875 1230.8299560546875 1222.02197265625 1212.9439697265625 1200.5159912109375 1192.0279541015625 1182.52001953125 1170.302001953125 1161.6639404296875 1152.7559814453125 1140.6280517578125 1128.56005859375 1115.4119873046875 1100.85400390625 1086.166015625 1069.5279541015625 1052.3699951171875 1034.7020263671875 1018.323974609375 1014.95599365234375 996.99798583984375 987.16998291015625 986.96197509765625 986.60400390625 968.43597412109375 952.468017578125 931.6500244140625 929.81201171875 900.15399169921875 887.0460205078125 897.28802490234375 899.05999755859375 876.76202392578125 866.823974609375 851.416015625 840.89697265625 822.79901123046875 806.77099609375 796.2130126953125 788.405029296875 782.406982421875 775.79901123046875 769.84100341796875 765.56298828125 755.53497314453125 748.3070068359375 741.29901123046875 737.4310302734375 732.83197021484375 729.3740234375 727.07598876953125 724.49798583984375 723.77001953125 718.24200439453125 717.10400390625 715.73602294921875 714.406982421875 713.15899658203125 713.1409912109375 712.13299560546875 712.125 711.1669921875 710.6290283203125 711.09100341796875 709.031982421875 707.52398681640625 707.906005859375 707.60797119140625 707.219970703125 701.1719970703125 699.343994140625 699.44500732421875 696.68701171875 698.26898193359375 702.1710205078125 708.13299560546875 -9999 -9999 -9999 -9999 -9999 -9999 -9999 -9999 -9999 -9999 -9999 -9999 -9999 -9999 -9999 -9999 -9999 -9999 -9999 -9999 -9999 -9999 -9999 -9999 -9999 -9999 -9999 -9999 -9999 -9999 -9999 -9999 -9999 -9999 -9999 -9999 -9999 -9999 -9999 -9999 -9999 -9999 -9999 -9999 -9999 -9999 -9999 -9999 -9999 -9999 -9999 -9999 -9999 -9999 -9999 -9999 -9999
-9999 -9999 -9999 -9999 -9999 -9999 -9999 -9999 -9999 -9999 -9999 -9999 -9999 -9999 -9999 -9999 -9999 -9999 -9999 -9999 -9999 -9999 -9999 -9999 -9999 -9999 1796.2550048828125 1776.64794921875 1749.8699951171875 1725.4429931640625 1701.2349853515625 1679.1180419921875 1658.199951171875 1637.4019775390625 1618.9150390625 1597.6080322265625 1579.969970703125 1559.4730224609375 1540.5849609375 1518.5980224609375 1497.5400390625 1480.1419677734375 1458.364013671875 1436.2259521484375 1412.8780517578125 1386.280029296875 1382.251953125 1396.9139404296875 1402.4759521484375 1412.748046875 1423.530029296875 1432.60205078125 1432.7340087890625 1430.0159912109375 1428.3280029296875 1424.5699462890625 1416.281982421875 1417.0340576171875 1415.885986328125 1408.748046875 1401.3499755859375 1392.4420166015625 1378.553955078125 1361.615966796875 1339.488037109375 1317.9200439453125 1316.862060546875 1299.2039794921875 1281.0460205078125 1257.427978515625 1269.18994140625 1264.9420166015625 1264.654052734375 1259.0059814453125 1255.7879638671875 1253.8499755859375 1248.6319580078125 1245.333984375 1246.5059814453125 1247.3580322265625 1245.1099853515625 1242.511962890625 1236.56396484375 1229.7760009765625 1224.43798828125 1217.9100341796875 1211.77197265625 1200.31396484375 1194.5760498046875 1182.6080322265625 1172.5899658203125 1163.4820556640625 1157.2039794921875 1146.6259765625 1134.14794921875 1119.010009765625 1107.751953125 1093.7239990234375 1080.615966796875 1070.988037109375 1055.1199951171875 1025.592041015625 997.53399658203125 992.416015625 988.8380126953125 976.989990234375 968.24200439453125 974.083984375 968.4959716796875 952.8480224609375 934.1199951171875 909.302001953125 904.10400390625 868.35601806640625 865.24798583984375 870.1099853515625 865.86199951171875 844.114013671875 829.406005859375 823.21697998046875 807.67901611328125 797.051025390625 787.9630126953125 781.0050048828125 775.00701904296875 769.9990234375 767.0009765625 758.552978515625 751.66497802734375 743.37701416015625 738.3389892578125 733.11102294921875 731.91302490234375 728.55401611328125 725.7960205078125 723.65802001953125 718.71002197265625 717.6619873046875 716.02398681640625 715.0260009765625 714.3480224609375 712.968994140625 713.3909912109375 713.093017578125 711.1669921875 711.75701904296875 712.65899658203125 709.6810302734375 709.4229736328125 708.56402587890625 707.39599609375 707.64801025390625 701.1719970703125 701.36199951171875 700.7239990234375 697.176025390625 696.68701171875 700.239013671875 708.45098876953125 708.11297607421875 -9999 -9999 -9999 -9999 -9999 -9999 -9999 -9999 -9999 -9999 -9999 -9999 -9999 -9999 -9999 -9999 -9999 -9999 -9999 -9999 -9999 -9999 -9999 -9999 -9999 -9999 -9999 -9999 -9999 -9999 -9999 -9999 -9999 -9999 -9999 -9999 -9999 -9999 -9999 -9999 -9999 -9999 -9999 -9999 -9999 -9999 -9999 -9999 -9999 -9999 -9999 -9999 -9999 -9999 -9999 -9999 -9999
-9999 -9999 -9999 -9999 -9999 -9999 -9999 -9999 -9999 -9999 -9999 -9999 -9999 -9999 -9999 -9999 -9999 -9999 -9999 -9999 -9999 -9999 -9999 -9999 -9999 -9999 -9999 1769.738037109375 1745.9510498046875 1723.262939453125 1701.8160400390625 1683.887939453125 1663.6610107421875 1642.4530029296875 1622.8260498046875 1607.387939453125 1586.6810302734375 1568.343017578125 1548.2860107421875 1529.0479736328125 1507.449951171875 1484.741943359375 1461.7340087890625 1438.4560546875 1415.697998046875 1392.530029296875 1367.27197265625 1376.824951171875 1385.3370361328125 1395.8890380859375 1407.1209716796875 1414.532958984375 1420.2149658203125 1415.43701171875 1413.259033203125 1406.9310302734375 1401.35302734375 1397.2850341796875 1396.3370361328125 1393.3890380859375 1385.470947265625 1374.843017578125 1362.4849853515625 1349.64697265625 1334.0389404296875 1307.6910400390625 1285.782958984375 1275.324951171875 1259.97705078125 1248.708984375 1247.81103515625 1242.072998046875 1243.2850341796875 1242.22705078125 1240.2490234375 1236.8509521484375 1233.1829833984375 1229.175048828125 1233.64697265625 1233.448974609375 1231.010986328125 1224.9530029296875 1222.68505859375 1218.0770263671875 1211.7889404296875 1206.1710205078125 1199.032958984375 1191.0250244140625 1181.0770263671875 1171.5889892578125 1165.220947265625 1158.02294921875 1146.5250244140625 1135.2569580078125 1120.47900390625 1109.8909912109375 1097.54296875 1087.2950439453125 1077.0069580078125 1068.698974609375 1056.7509765625 1040.623046875 1018.05499267578125 998.5469970703125 977.8489990234375 961.21099853515625 957.25299072265625 952.58502197265625 958.21697998046875 947.43902587890625 933.96099853515625 909.90301513671875 890.91497802734375 869.677001953125 844.708984375 844.56097412109375 839.52301025390625 826.96502685546875 818.68701171875 811.968017578125 800.3499755859375 791.0419921875 782.28399658203125 776.7760009765625 771.16802978515625 766.5999755859375 762.22198486328125 756.90301513671875 748.82501220703125 740.87701416015625 736.22900390625 733.52099609375 729.88299560546875 727.58502197265625 723.73699951171875 719.0579833984375 718.030029296875 716.822021484375 716.39398193359375 714.31597900390625 713.61798095703125 714.030029296875 712.73101806640625 712.37298583984375 711.4749755859375 712.8270263671875 710.05902099609375 709.9210205078125 708.9329833984375 703.18499755859375 708.385986328125 701.41802978515625 701.489990234375 701.77197265625 700.66400146484375 697.426025390625 698.53802490234375 709.15899658203125 708.531005859375 708.6729736328125 -9999 -9999 -9999 -9999 -9999 -9999 -9999 -9999 -9999 -9999 -9999 -9999 -9999 -9999 -9999 -9999 -9999 -9999 -9999 -9999 -9999 -9999 -9999 -9999 -9999 -9999 -9999 -9999 -9999 -9999 -9999 -9999 -9999 -9999 -9999 -9999 -9999 -9999 -9999 -9999 -9999 -9999 -9999 -9999 -9999 -9999 -9999 -9999 -9999 -9999 -9999 -9999 -9999 -9999 -9999 -9999 -9999
-9999 -9999 -9999 -9999 -9999 -9999 -9999 -9999 -9999 -9999 -9999 -9999 -9999 -9999 -9999 -9999 -9999 -9999 -9999 -9999 -9999 -9999 -9999 -9999 -9999 -9999 -9999 -9999 -9999 1729.81396484375 1710.2960205078125 1690.2889404296875 1667.1109619140625 1648.073974609375 1630.865966796875 1614.489013671875 1597.740966796875 1580.1240234375 1554.2259521484375 1530.47900390625 1507.291015625 1485.093017578125 1469.135009765625 1448.6669921875 1428.6490478515625 1405.6510009765625 1367.9830322265625 1359.14501953125 1368.177001953125 1376.198974609375 1387.1610107421875 1397.123046875 1406.135009765625 1400.3570556640625 1395.718994140625 1389.470947265625 1385.4229736328125 1378.655029296875 1378.72705078125 1376.5589599609375 1365.990966796875 1358.52294921875 1348.385009765625 1336.9169921875 1323.6390380859375 1305.3509521484375 1280.31298828125 1258.614990234375 1243.64697265625 1227.76904296875 1219.1610107421875 1220.883056640625 1224.6650390625 1222.6070556640625 1220.3289794921875 1220.6309814453125 1218.1529541015625 1216.56494140625 1217.47705078125 1217.3389892578125 1215.6409912109375 1213.4129638671875 1213.344970703125 1206.5970458984375 1201.259033203125 1196.1610107421875 1186.6629638671875 1179.1949462890625 1170.947021484375 1164.468994140625 1157.571044921875 1147.9930419921875 1135.9449462890625 1121.39697265625 1109.3990478515625 1101.0009765625 1089.873046875 1080.7249755859375 1073.427001953125 1062.7989501953125 1047.9010009765625 1032.802978515625 1021.2550048828125 1009.85699462890625 993.51898193359375 971.59100341796875 950.552978515625 933.69500732421875 940.49700927734375 939.968994140625 927.281005859375 910.61297607421875 882.125 862.947021484375 850.458984375 829.8909912109375 823.01300048828125 815.81500244140625 807.09698486328125 801.14801025390625 793.91998291015625 787.24200439453125 780.16400146484375 773.10601806640625 768.218017578125 764.260009765625 758.98199462890625 753.4539794921875 742.83599853515625 736.59698486328125 732.448974609375 731.3809814453125 729.802978515625 723.9749755859375 723.427001953125 718.8389892578125 717 716.34197998046875 715.364013671875 714.69598388671875 713.86798095703125 713.25 712.63201904296875 711.27301025390625 710.7769775390625 710.7769775390625 710.30902099609375 709.84100341796875 708.86297607421875 707.9849853515625 702.75701904296875 701.93798828125 701.6099853515625 701.802001953125 697.88397216796875 697.7559814453125 706.8280029296875 709.469970703125 708.8809814453125 714.85302734375 -9999 -9999 -9999 -9999 -9999 -9999 -9999 -9999 -9999 -9999 -9999 -9999 -9999 -9999 -9999 -9999 -9999 -9999 -9999 -9999 -9999 -9999 -9999 -9999 -9999 -9999 -9999 -9999 -9999 -9999 -9999 -9999 -9999 -9999 -9999 -9999 -9999 -9999 -9999 -9999 -9999 -9999 -9999 -9999 -9999 -9999 -9999 -9999 -9999 -9999 -9999 -9999 -9999 -9999 -9999 -9999 -9999
-9999 -9999 -9999 -9999 -9999 -9999 -9999 -9999 -9999 -9999 -9999 -9999 -9999 -9999 -9999 -9999 -9999 -9999 -9999 -9999 -9999 -9999 -9999 -9999 -9999 -9999 -9999 -9999 -9999 -9999 -9999 1696.8189697265625 1678.491943359375 1661.6939697265625 1644.70703125 1625.1190185546875 1606.741943359375 1583.31396484375 1557.737060546875 1535.6689453125 1517.4019775390625 1498.053955078125 1477.4759521484375 1456.0579833984375 1433.31005859375 1408.6519775390625 1380.0439453125 1351.3759765625 1345.93798828125 1358.5 1367.251953125 1380.323974609375 1389.9659423828125 1383.3179931640625 1377.0899658203125 1372.9420166015625 1371.9139404296875 1362.845947265625 1363.6180419921875 1359.3599853515625 1350.35205078125 1342.053955078125 1333.095947265625 1322.968017578125 1303.760009765625 1285.842041015625 1268.9739990234375 1252.666015625 1234.1180419921875 1217.8800048828125 1200.491943359375 1202.7340087890625 1205.0360107421875 1206.3270263671875 1204.8189697265625 1204.4410400390625 1202.3929443359375 1203.2149658203125 1204.8270263671875 1204.0989990234375 1204.4210205078125 1203.873046875 1199.9949951171875 1196.737060546875 1192.218994140625 1183.1409912109375 1175.7330322265625 1169.2149658203125 1163.4969482421875 1155.5389404296875 1148.720947265625 1134.7330322265625 1122.375 1109.5469970703125 1100.708984375 1091.571044921875 1082.27294921875 1076.7149658203125 1065.636962890625 1051.4090576171875 1035.1009521484375 1023.41302490234375 1011.2550048828125 1000.1669921875 991.3189697265625 979.58099365234375 962.26300048828125 943.7650146484375 924.0369873046875 907.76898193359375 906.2509765625 898.26300048828125 879.95501708984375 859.75701904296875 830.88897705078125 826.83099365234375 819.5830078125 810.0150146484375 801.61700439453125 797.718017578125 790.65997314453125 783.62200927734375 777.35400390625 771.11602783203125 766.37799072265625 762.15997314453125 757.25201416015625 748.81402587890625 739.7559814453125 733.9580078125 730.458984375 728.541015625 725.7130126953125 723.41497802734375 720.76702880859375 718.1090087890625 715.8709716796875 715.822021484375 715.2139892578125 714.9959716796875 713.8079833984375 713.3499755859375 712.2919921875 711.30401611328125 711.82598876953125 710.85699462890625 710.50897216796875 709.59100341796875 707.14300537109375 702.844970703125 703.21697998046875 702.1090087890625 701.77001953125 698.1920166015625 698.16400146484375 706.36602783203125 709.27801513671875 708.90997314453125 711.4420166015625 724.60302734375 730.89501953125 -9999 -9999 -9999 -9999 -9999 -9999 -9999 -9999 -9999 -9999 -9999 -9999 -9999 -9999 -9999 -9999 -9999 -9999 -9999 -9999 -9999 -9999 -9999 -9999 -9999 -9999 -9999 -9999 -9999 -9999 -9999 -9999 -9999 -9999 -9999 -9999 -9999 -9999 -9999 -9999 -9999 -9999 -9999 -9999 -9999 -9999 -9999 -9999 -9999 -9999 -9999 -9999 -9999 -9999 -9999 -9999
-9999 -9999 -9999 -9999 -9999 -9999 -9999 -9999 -9999 -9999 -9999 -9999 -9999 -9999 -9999 -9999 -9999 -9999 -9999 -9999 -9999 -9999 -9999 -9999 -9999 -9999 -9999 -9999 -9999 -9999 -9999 -9999 -9999 1660.9749755859375 1641.8470458984375 1620.56005859375 1602.862060546875 1581.5050048828125 1557.697021484375 1535.72998046875 1517.001953125 1495.0240478515625 1473.93603515625 1453.0379638671875 1430.68994140625 1404.1519775390625 1383.14404296875 1360.39599609375 1330.47802734375 1335 1351.2320556640625 1365.9339599609375 1371.2659912109375 1360.3280029296875 1347.510009765625 1347.2320556640625 1358.9339599609375 1347.885986328125 1344.0479736328125 1339.72998046875 1333.552001953125 1323.114013671875 1313.446044921875 1298.3179931640625 1281.199951171875 1269.35205078125 1256.9840087890625 1241.615966796875 1224.16796875 1211.02001953125 1197.9820556640625 1182.5040283203125 1182.7159423828125 1186.7879638671875 1190.3299560546875 1184.281982421875 1187.114013671875 1190.446044921875 1192.22802734375 1192.8399658203125 1192.862060546875 1192.154052734375 1191.0460205078125 1189.2979736328125 1180.3599853515625 1173.4420166015625 1167.4639892578125 1160.8160400390625 1152.3280029296875 1143.3199462890625 1131.56201171875 1119.9940185546875 1109.5159912109375 1099.887939453125 1092.199951171875 1082.6719970703125 1075.1240234375 1065.906005859375 1049.927978515625 1034.8499755859375 1023.11199951171875 1011.6939697265625 1000.4949951171875 990.697021484375 983.92901611328125 971.6510009765625 958.52301025390625 933.03497314453125 913.93701171875 883.41900634765625 877.5009765625 877.14300537109375 864.9849853515625 844.197021484375 825.239013671875 817.71099853515625 809.26300048828125 807.2349853515625 796.18701171875 792.89801025390625 787.79998779296875 781.572021484375 775.333984375 768.84600830078125 764.36798095703125 759.32000732421875 754.9019775390625 742.38397216796875 737.5260009765625 731.50799560546875 728.4000244140625 725.541015625 723.0830078125 721.71502685546875 718.0269775390625 716.92901611328125 716.260986328125 714.9630126953125 715.114013671875 715.23602294921875 713.66802978515625 713.3499755859375 712.4219970703125 712.9439697265625 711.60601806640625 711.26800537109375 710.38897705078125 709.95098876953125 705.13299560546875 703.7650146484375 702.63702392578125 699.6190185546875 698.3809814453125 699.12200927734375 702.823974609375 708.69598388671875 709.677978515625 710.02001953125 721.12200927734375 730.364013671875 731.135009765625 -9999 -9999 -9999 -9999 -9999 -9999 -9999 -9999 -9999 -9999 -9999 -9999 -9999 -9999 -9999 -9999 -9999 -9999 -9999 -9999 -9999 -9999 -9999 -9999 -9999 -9999 -9999 -9999 -9999 -9999 -9999 -9999 -9999 -9999 -9999 -9999 -9999 -9999 -9999 -9999 -9999 -9999 -9999 -9999 -9999 -9999 -9999 -9999 -9999 -9999 -9999 -9999 -9999 -9999 -9999 -9999
-9999 -9999 -9999 -9999 -9999 -9999 -9999 -9999 -9999 -9999 -9999 -9999 -9999 -9999 -9999 -9999 -9999 -9999 -9999 -9999 -9999 -9999 -9999 -9999 -9999 -9999 -9999 -9999 -9999 -9999 -9999 -9999 -9999 -9999 1637.238037109375 1611.9410400390625 1588.133056640625 1570.656005859375 1549.677978515625 1529.050048828125 1507.9930419921875 1486.14501953125 1465.656982421875 1445.1390380859375 1424.6910400390625 1403.552978515625 1379.5250244140625 1363.14697265625 1339.5689697265625 1315.6910400390625 1332.1729736328125 1346.89501953125 1350.2769775390625 1345.72900390625 1323.531005859375 1328.81298828125 1341.06494140625 1334.116943359375 1314.6090087890625 1317.8310546875 1315.79296875 1305.7850341796875 1291.14697265625 1278.0689697265625 1266.4110107421875 1256.27197265625 1243.10400390625 1227.2760009765625 1217.468017578125 1205.1800537109375 1191.362060546875 1186.2039794921875 1169.0660400390625 1167.927978515625 1166.1800537109375 1171.0419921875 1174.7939453125 1178.9959716796875 1185.5179443359375 1184 1184.2220458984375 1184.7840576171875 1181.18603515625 1176.7679443359375 1170.3199462890625 1163.6519775390625 1155.593994140625 1148.8360595703125 1139.0279541015625 1127.22998046875 1116.3919677734375 1107.7840576171875 1099.2960205078125 1091.137939453125 1080.6800537109375 1072.072021484375 1062.333984375 1048.6259765625 1034.407958984375 1023.17999267578125 1013.52197265625 1002.864013671875 991.59600830078125 983.927978515625 975.82000732421875 963.01202392578125 947.3740234375 930.64599609375 910.98797607421875 884.96002197265625 855.75201416015625 843.28399658203125 838.7559814453125 826.61798095703125 817.1090087890625 807.6810302734375 804.11297607421875 796.7650146484375 789.1669921875 785.2490234375 779.77099609375 777.7030029296875 773.38397216796875 766.18597412109375 761.3380126953125 756.760009765625 752.37200927734375 739.7340087890625 734.385986328125 729.0479736328125 725.8900146484375 722.7919921875 722.03302001953125 718.19500732421875 716.26702880859375 715.93902587890625 715.1710205078125 714.78302001953125 714.66497802734375 714.33697509765625 714.0479736328125 715.03997802734375 713.01202392578125 711.53399658203125 711.26800537109375 711.74798583984375 710.8499755859375 708.49102783203125 704.2030029296875 700.56500244140625 699.697021484375 699.448974609375 700.81097412109375 702.78302001953125 708.68402099609375 709.666015625 709.89801025390625 716.6199951171875 729.56201171875 730.77398681640625 731.21600341796875 -9999 -9999 -9999 -9999 -9999 -9999 -9999 -9999 -9999 -9999 -9999 -9999 -9999 -9999 -9999 -9999 -9999 -9999 -9999 -9999 -9999 -9999 -9999 -9999 -9999 -9999 -9999 -9999 -9999 -9999 -9999 -9999 -9999 -9999 -9999 -9999 -9999 -9999 -9999 -9999 -9999 -9999 -9999 -9999 -9999 -9999 -9999 -9999 -9999 -9999 -9999 -9999 -9999 -9999 -9999 -9999
-9999 -9999 -9999 -9999 -9999 -9999 -9999 -9999 -9999 -9999 -9999 -9999 -9999 -9999 -9999 -9999 -9999 -9999 -9999 -9999 -9999 -9999 -9999 -9999 -9999 -9999 -9999 -9999 -9999 -9999 -9999 -9999 -9999 -9999 -9999 1607.3509521484375 1584.2740478515625 1564.0860595703125 1542.1190185546875 1521.3709716796875 1501.032958984375 1481.0450439453125 1462.0469970703125 1447.5889892578125 1429.2509765625 1413.1429443359375 1387.7650146484375 1366.116943359375 1345.2989501953125 1324.3809814453125 1300.9730224609375 1313.9749755859375 1318.1669921875 1316.2490234375 1304.281005859375 1307.4429931640625 1314.625 1317.697021484375 1299.239013671875 1292.7509765625 1299.2030029296875 1286.5450439453125 1269.97705078125 1261.9090576171875 1250.48095703125 1240.10302734375 1226.81494140625 1214.0570068359375 1203.72900390625 1198.071044921875 1183.2130126953125 1177.5250244140625 1166.0870361328125 1153.739013671875 1152.720947265625 1158.1529541015625 1158.0050048828125 1171.677001953125 1176.0489501953125 1177.990966796875 1177.2130126953125 1174.9649658203125 1170.7869873046875 1165.448974609375 1158.541015625 1152.10302734375 1144.9940185546875 1133.6259765625 1123.218017578125 1112.7099609375 1104.4720458984375 1096.5340576171875 1090.43603515625 1078.988037109375 1068.8199462890625 1060.501953125 1046.083984375 1032.365966796875 1022.24798583984375 1013.239990234375 1003.10198974609375 991.64398193359375 984.39599609375 976.8480224609375 965.8499755859375 948.76202392578125 934.16400146484375 914.81597900390625 895.968017578125 883.07000732421875 862.71197509765625 839.614013671875 819.9959716796875 813.50799560546875 807.17999267578125 802.23199462890625 795.4639892578125 791.69598388671875 784.0780029296875 780.5889892578125 775.83099365234375 772.23297119140625 768.05499267578125 763.50701904296875 757.0789794921875 750.61102294921875 745.572998046875 735.364013671875 731.14599609375 726.9580078125 723.22998046875 722.24200439453125 718.4539794921875 718.635986328125 716.48699951171875 715.718994140625 715.34100341796875 715.00299072265625 714.655029296875 713.38702392578125 713.15899658203125 714.5 715.26202392578125 711.89398193359375 711.7860107421875 711.447998046875 710.8900146484375 705.02197265625 701.14300537109375 700.44500732421875 700.00701904296875 701.8590087890625 703.73101806640625 706.4730224609375 709.344970703125 710.0260009765625 713.98797607421875 725.219970703125 730.072021484375 731.18402099609375 731.22601318359375 -9999 -9999 -9999 -9999 -9999 -9999 -9999 -9999 -9999 -9999 -9999 -9999 -9999 -9999 -9999 -9999 -9999 -9999 -9999 -9999 -9999 -9999 -9999 -9999 -9999 -9999 -9999 -9999 -9999 -9999 -9999 -9999 -9999 -9999 -9999 -9999 -9999 -9999 -9999 -9999 -9999 -9999 -9999 -9999 -9999 -9999 -9999 -9999 -9999 -9999 -9999 -9999 -9999 -9999 -9999 -9999
-9999 -9999 -9999 -9999 -9999 -9999 -9999 -9999 -9999 -9999 -9999 -9999 -9999 -9999 -9999 -9999 -9999 -9999 -9999 -9999 -9999 -9999 -9999 -9999 -9999 -9999 -9999 -9999 -9999 -9999 -9999 -9999 -9999 -9999 -9999 -9999 -9999 1567.0069580078125 1549.698974609375 1530.4620361328125 1512.614013671875 1494.696044921875 1478.008056640625 1462.22998046875 1443.281982421875 1422.2039794921875 1399.6259765625 1379.72802734375 1355.5999755859375 1328.251953125 1303.6639404296875 1288.095947265625 1290.5279541015625 1284.6300048828125 1278.58203125 1286.5140380859375 1291.676025390625 1302.7879638671875 1279.8399658203125 1268.001953125 1274.2640380859375 1270.635986328125 1254.7779541015625 1246.97900390625 1238.260986328125 1227.6729736328125 1217.2750244140625 1203.8170166015625 1190.8489990234375 1182.5909423828125 1175.1529541015625 1165.7650146484375 1164.8270263671875 1147.1090087890625 1139.5009765625 1143.79296875 1148.89501953125 1163.987060546875 1165.178955078125 1166.6910400390625 1163.863037109375 1160.7950439453125 1157.467041015625 1152.18896484375 1146.970947265625 1139.4530029296875 1129.4449462890625 1119.616943359375 1110.279052734375 1100.6309814453125 1095.4830322265625 1085.35498046875 1075.7669677734375 1066.4090576171875 1057.740966796875 1044.1629638671875 1032.114990234375 1021.10699462890625 1013.85797119140625 1003.530029296875 994.96197509765625 985.29400634765625 977.19598388671875 966.90802001953125 949.780029296875 932.2020263671875 913.9539794921875 895.5260009765625 880.78802490234375 870.66998291015625 855.2020263671875 834.54400634765625 814.426025390625 805.61798095703125 799.8699951171875 793.76202392578125 789.15399169921875 784.5360107421875 778.68798828125 776.66900634765625 772.60101318359375 767.53302001953125 763.7449951171875 759.406982421875 755.2490234375 745.6409912109375 737.9429931640625 731.83502197265625 728.68597412109375 722.90802001953125 722.45001220703125 719.781982421875 717.9439697265625 716.89599609375 716.2080078125 715.72900390625 715.260986328125 714.41302490234375 713.58502197265625 713.22698974609375 713.0889892578125 712.64300537109375 716.9520263671875 712.14398193359375 711.73602294921875 711.7080078125 711.28997802734375 704.10198974609375 701.30401611328125 700.19500732421875 703.09698486328125 702.25897216796875 707.551025390625 709.53302001953125 709.9949951171875 710.61700439453125 720.8380126953125 729.219970703125 730.88201904296875 731.1939697265625 731.426025390625 731.5479736328125 732.6099853515625 734.99102783203125 -9999 -9999 -9999 -9999 -9999 -9999 -9999 -9999 -9999 -9999 -9999 -9999 -9999 -9999 -9999 -9999 -9999 -9999 -9999 -9999 -9999 -9999 -9999 -9999 -9999 -9999 -9999 -9999 -9999 -9999 -9999 -9999 -9999 -9999 -9999 -9999 -9999 -9999 -9999 -9999 -9999 -9999 -9999 -9999 -9999 -9999 -9999 -9999 -9999 -9999 -9999 -9999 -9999
-9999 -9999 -9999 -9999 -9999 -9999 -9999 -9999 -9999 -9999 -9999 -9999 -9999 -9999 -9999 -9999 -9999 -9999 -9999 -9999 -9999 -9999 -9999 -9999 -9999 -9999 -9999 -9999 -9999 -9999 -9999 -9999 -9999 -9999 -9999 -9999 -9999 -9999 1548.489990234375 1538.9820556640625 1524.155029296875 1507.7469482421875 1491.93896484375 1472.719970703125 1450.6820068359375 1427.5439453125 1406.3060302734375 1384.5679931640625 1354.3800048828125 1337.9720458984375 1315.35400390625 1291.89599609375 1270.41796875 1256.719970703125 1249.8919677734375 1260.5140380859375 1280.7459716796875 1268.3380126953125 1249.02001953125 1250.112060546875 1247.884033203125 1239.8160400390625 1236.887939453125 1230.97998046875 1223.751953125 1220.3740234375 1207.416015625 1193.677978515625 1182.989990234375 1173.322021484375 1160.364013671875 1154.4659423828125 1154.197998046875 1140.6600341796875 1128.531982421875 1130.9139404296875 1147.906005859375 1156.5980224609375 1154.9200439453125 1154.8509521484375 1153.012939453125 1149.155029296875 1146.9169921875 1140.0589599609375 1131.8909912109375 1126.2230224609375 1115.0450439453125 1105.4969482421875 1097.7490234375 1090.2010498046875 1081.822998046875 1075.425048828125 1066.0069580078125 1058.1689453125 1042.571044921875 1029.3929443359375 1020.4849853515625 1012.87701416015625 1002.0989990234375 995.85101318359375 986.822998046875 978.95501708984375 965.87701416015625 949.80902099609375 931.1610107421875 911.36297607421875 894.85498046875 880.5260009765625 866.447998046875 855.5 846.63201904296875 830.01397705078125 811.85601806640625 799.3079833984375 791.8900146484375 787.97198486328125 782.343994140625 777.57598876953125 773.8280029296875 771.5989990234375 768.1409912109375 761.822998046875 757.614990234375 752.68701171875 745.76898193359375 739.58099365234375 735.65301513671875 731.83502197265625 727.5570068359375 725.22802734375 721.989990234375 719.61199951171875 718.63397216796875 716.906005859375 716.4580078125 715.77001953125 715.08099365234375 714.28302001953125 713.58502197265625 713.3170166015625 712.64300537109375 712.73101806640625 712.64300537109375 711.9840087890625 711.885986328125 711.50799560546875 709.3900146484375 704.7919921875 700.9840087890625 700.44598388671875 703.46697998046875 707.948974609375 708.07098388671875 710.4229736328125 710.4949951171875 711.2869873046875 719.8189697265625 724.09002685546875 731.11199951171875 731.6939697265625 731.5360107421875 731.86798095703125 733.42999267578125 737.1710205078125 742.4429931640625 -9999 -9999 -9999 -9999 -9999 -9999 -9999 -9999 -9999 -9999 -9999 -9999 -9999 -9999 -9999 -9999 -9999 -9999 -9999 -9999 -9999 -9999 -9999 -9999 -9999 -9999 -9999 -9999 -9999 -9999 -9999 -9999 -9999 -9999 -9999 -9999 -9999 -9999 -9999 -9999 -9999 -9999 -9999 -9999 -9999 -9999 -9999 -9999 -9999 -9999 -9999 -9999
-9999 -9999 -9999 -9999 -9999 -9999 -9999 -9999 -9999 -9999 -9999 -9999 -9999 -9999 -9999 -9999 -9999 -9999 -9999 -9999 -9999 -9999 -9999 -9999 -9999 -9999 -9999 -9999 -9999 -9999 -9999 -9999 -9999 -9999 -9999 -9999 -9999 -9999 -9999 1530.7530517578125 1523.2449951171875 1511.22705078125 1493.779052734375 1472.3609619140625 1451.282958984375 1431.4449462890625 1410.0970458984375 1387.5489501953125 1371.3409423828125 1349.4329833984375 1327.2950439453125 1309.136962890625 1286.1490478515625 1270.4010009765625 1246.4630126953125 1235.4649658203125 1262.9169921875 1233.239013671875 1223.6309814453125 1216.9730224609375 1220.10498046875 1218.22705078125 1215.968017578125 1213.31005859375 1213.58203125 1230.7939453125 1221.176025390625 1201.43798828125 1182.530029296875 1165.491943359375 1153.833984375 1142.2960205078125 1139.0880126953125 1136.6700439453125 1120.56201171875 1123.364013671875 1138.0159912109375 1143.7679443359375 1139.5699462890625 1140.4520263671875 1141.60400390625 1138.595947265625 1130.7080078125 1124.56005859375 1118.7919921875 1111.1639404296875 1102.4759521484375 1094.4580078125 1086.719970703125 1078.73095703125 1071.633056640625 1063.0350341796875 1054.0670166015625 1041.1689453125 1030.740966796875 1022.4329833984375 1012.7349853515625 1005.00701904296875 996.8590087890625 988.83099365234375 979.49298095703125 963.10498046875 948.48699951171875 930.53900146484375 910.34100341796875 894.4429931640625 879.94500732421875 865.906982421875 851.52899169921875 838.82098388671875 831.76300048828125 825.07501220703125 814.2869873046875 794.0880126953125 783.66998291015625 779.9219970703125 777.28399658203125 772.95599365234375 769.4580078125 767.3489990234375 761.31097412109375 757.36297607421875 750.39501953125 745.0469970703125 739.3790283203125 733.60101318359375 730.4329833984375 729.375 727.156982421875 722.65899658203125 720.8599853515625 719.52197265625 717.54400634765625 716.96600341796875 716.38800048828125 716 714.552001953125 714.2130126953125 714.0250244140625 712.89697265625 713.0889892578125 712.9310302734375 712.572998046875 713.10498046875 712.0460205078125 711.87799072265625 708.260009765625 704.7919921875 700.44598388671875 703.656005859375 702.89801025390625 708.75897216796875 709.09100341796875 710.572998046875 710.4949951171875 715.5469970703125 720.708984375 723.719970703125 729.4019775390625 732.04400634765625 732.0460205078125 732.63800048828125 736.40997314453125 741.4320068359375 747.802978515625 753.7550048828125 -9999 -9999 -9999 -9999 -9999 -9999 -9999 -9999 -9999 -9999 -9999 -9999 -9999 -9999 -9999 -9999 -9999 -9999 -9999 -9999 -9999 -9999 -9999 -9999 -9999 -9999 -9999 -9999 -9999 -9999 -9999 -9999 -9999 -9999 -9999 -9999 -9999 -9999 -9999 -9999 -9999 -9999 -9999 -9999 -9999 -9999 -9999 -9999 -9999 -9999 -9999
-9999 -9999 -9999 -9999 -9999 -9999 -9999 -9999 -9999 -9999 -9999 -9999 -9999 -9999 -9999 -9999 -9999 -9999 -9999 -9999 -9999 -9999 -9999 -9999 -9999 -9999 -9999 -9999 -9999 -9999 -9999 -9999 -9999 -9999 -9999 -9999 -9999 -9999 -9999 -9999 1518.095947265625 1508.157958984375 1494.77001953125 1478.251953125 1458.553955078125 1439.7359619140625 1418.5880126953125 1399.489990234375 1381.740966796875 1360.1829833984375 1342.0450439453125 1318.677001953125 1295.4189453125 1270.281005859375 1246.31298828125 1221.3050537109375 1226.386962890625 1215.259033203125 1206.541015625 1200.802978515625 1199.5350341796875 1197.8070068359375 1201.4090576171875 1198.1009521484375 1205.593017578125 1225.9549560546875 1228.68701171875 1212.509033203125 1191.0009765625 1172.1429443359375 1156.9449462890625 1140.8170166015625 1126.6190185546875 1125.3709716796875 1113.9520263671875 1106.803955078125 1123.5159912109375 1127.8079833984375 1127.18994140625 1125.08203125 1125.0439453125 1120.5660400390625 1114.748046875 1109.550048828125 1103.2919921875 1097.7640380859375 1091.156005859375 1082.3680419921875 1075.1600341796875 1067.552001953125 1059.9339599609375 1049.9859619140625 1039.1280517578125 1028.030029296875 1019.6820068359375 1012.53399658203125 1005.31597900390625 998.89697265625 988.92901611328125 980.84100341796875 966.11297607421875 948.60498046875 931.1669921875 911.67901611328125 895.48101806640625 880.302978515625 865.45501708984375 853.83697509765625 842.0889892578125 826.291015625 815.76300048828125 808.45501708984375 797.7769775390625 785.708984375 776.57098388671875 773.90301513671875 771.60498046875 767.0269775390625 765.25799560546875 760.94000244140625 756.2919921875 750.7139892578125 743.31500244140625 738.25701904296875 733.89898681640625 730.6510009765625 728.37298583984375 726.344970703125 722.59698486328125 722.63897705078125 720.9310302734375 719.1729736328125 717.4940185546875 717.0159912109375 716.26800537109375 716.07000732421875 714.75201416015625 714.323974609375 713.7750244140625 713.68701171875 713.26898193359375 712.6409912109375 712.572998046875 712.66497802734375 712.45697021484375 712.2979736328125 709.45001220703125 704.59197998046875 700.44598388671875 704.0059814453125 709.447998046875 708.92999267578125 710.49102783203125 711.00299072265625 713.905029296875 720.5469970703125 722.198974609375 726.81097412109375 732.76202392578125 734.90399169921875 733.96600341796875 734.5579833984375 739.280029296875 744.85198974609375 754.093994140625 759.7449951171875 765.26702880859375 -9999 -9999 -9999 -9999 -9999 -9999 -9999 -9999 -9999 -9999 -9999 -9999 -9999 -9999 -9999 -9999 -9999 -9999 -9999 -9999 -9999 -9999 -9999 -9999 -9999 -9999 -9999 -9999 -9999 -9999 -9999 -9999 -9999 -9999 -9999 -9999 -9999 -9999 -9999 -9999 -9999 -9999 -9999 -9999 -9999 -9999 -9999 -9999 -9999 -9999
-9999 -9999 -9999 -9999 -9999 -9999 -9999 -9999 -9999 -9999 -9999 -9999 -9999 -9999 -9999 -9999 -9999 -9999 -9999 -9999 -9999 -9999 -9999 -9999 -9999 -9999 -9999 -9999 -9999 -9999 -9999 -9999 -9999 -9999 -9999 -9999 -9999 -9999 -9999 -9999 -9999 1497.697998046875 1487.1600341796875 1474.741943359375 1462.64404296875 1446.4859619140625 1429.8780517578125 1412.510009765625 1389.4520263671875 1367.7540283203125 1347.635986328125 1324.697998046875 1303.1400146484375 1278.501953125 1251.64404296875 1221.426025390625 1206.5980224609375 1202.3599853515625 1193.511962890625 1184.0340576171875 1179.3260498046875 1178.45703125 1182.989013671875 1181.490966796875 1191.593017578125 1206.14501953125 1213.18701171875 1215.97900390625 1195.9010009765625 1175.2130126953125 1156.5550537109375 1137.947021484375 1124.5989990234375 1111.2010498046875 1106.133056640625 1092.5550537109375 1106.116943359375 1112.0689697265625 1112.9410400390625 1106.863037109375 1108.1650390625 1103.1070556640625 1097.178955078125 1093.050048828125 1090.1820068359375 1084.634033203125 1076.365966796875 1071.468017578125 1063.030029296875 1055.7020263671875 1044.9539794921875 1036.7159423828125 1026.248046875 1018.469970703125 1012.6820068359375 1007.6939697265625 999.31597900390625 989.0479736328125 980 965.71197509765625 952.4439697265625 933.666015625 913.16802978515625 897.780029296875 883.051025390625 868.99298095703125 852.57501220703125 834.58697509765625 830.16900634765625 818.45098876953125 803.7230224609375 793.655029296875 782.7769775390625 773.55902099609375 769.23101806640625 767.36297607421875 765.405029296875 761.8170166015625 757.52899169921875 755.8599853515625 751.531982421875 744.26397705078125 737.82598876953125 734.63800048828125 732.40997314453125 728.89202880859375 727.15301513671875 723.35498046875 722.72698974609375 721.3690185546875 719.260986328125 718.1929931640625 717.55499267578125 717.0159912109375 716.5880126953125 716.54998779296875 715.302001953125 714.79400634765625 714.39599609375 714.22698974609375 713.68902587890625 712.801025390625 712.7030029296875 712.85498046875 712.73699951171875 712.6190185546875 710.03997802734375 704.4520263671875 701.333984375 704.8060302734375 710.14801025390625 709.22998046875 711.072021484375 712.90301513671875 718.04498291015625 721.906982421875 727.1190185546875 731.77099609375 735.02301025390625 734.9840087890625 735.98602294921875 737.8480224609375 742.6300048828125 752.61199951171875 758.85400390625 764.98602294921875 771.83697509765625 779.54901123046875 -9999 -9999 -9999 -9999 -9999 -9999 -9999 -9999 -9999 -9999 -9999 -9999 -9999 -9999 -9999 -9999 -9999 -9999 -9999 -9999 -9999 -9999 -9999 -9999 -9999 -9999 -9999 -9999 -9999 -9999 -9999 -9999 -9999 -9999 -9999 -9999 -9999 -9999 -9999 -9999 -9999 -9999 -9999 -9999 -9999 -9999 -9999 -9999 -9999
-9999 -9999 -9999 -9999 -9999 -9999 -9999 -9999 -9999 -9999 -9999 -9999 -9999 -9999 -9999 -9999 -9999 -9999 -9999 -9999 -9999 -9999 -9999 -9999 -9999 -9999 -9999 -9999 -9999 -9999 -9999 -9999 -9999 -9999 -9999 -9999 -9999 -9999 -9999 -9999 -9999 -9999 1473.23095703125 1463.552978515625 1453.114990234375 1438.9169921875 1422.5389404296875 1404.1009521484375 1385.012939453125 1365.114990234375 1349.2359619140625 1330.0379638671875 1303.6300048828125 1276.4320068359375 1252.7440185546875 1235.7060546875 1216.64794921875 1206.4200439453125 1192.10205078125 1183.134033203125 1169.7359619140625 1161.97802734375 1162.8299560546875 1166.3919677734375 1176.60400390625 1184.2960205078125 1190.988037109375 1196.239990234375 1194.862060546875 1173.583984375 1157.156005859375 1142.927001953125 1125.43896484375 1109.9610595703125 1097.262939453125 1087.2049560546875 1087.47705078125 1094.3389892578125 1088.1109619140625 1084.7030029296875 1089.0849609375 1086.2769775390625 1084.1090087890625 1082.0810546875 1078.6729736328125 1072.875 1063.5770263671875 1056.93896484375 1049.6610107421875 1040.613037109375 1030.9649658203125 1021.676025390625 1015.968017578125 1011.010009765625 1006.1719970703125 1000.073974609375 989.0059814453125 978.927978515625 966.04998779296875 952.1719970703125 932.4539794921875 913.81597900390625 897.697998046875 884.3599853515625 872.50201416015625 856.343994140625 833.176025390625 818.3280029296875 814.989990234375 811.59100341796875 798.13299560546875 780.30499267578125 771.89697265625 767.3489990234375 762.1309814453125 761.11297607421875 760.56500244140625 756.8070068359375 752.67901611328125 751.02001953125 745.9219970703125 739.65399169921875 735.7459716796875 732.7080078125 730.46002197265625 726.9320068359375 723.77398681640625 724.60498046875 722.49700927734375 719.68902587890625 718.97100830078125 718.06298828125 717.55499267578125 717.11700439453125 717.03802490234375 716.6099853515625 715.06201171875 714.88397216796875 714.85601806640625 714.28802490234375 713.8389892578125 713.23101806640625 712.9630126953125 713.17498779296875 712.8270263671875 711.8590087890625 706.23101806640625 704.9320068359375 701.9439697265625 705.3759765625 710.5679931640625 710.46002197265625 711.71197509765625 720.38299560546875 724.135009765625 727.10699462890625 732.41900634765625 734.6810302734375 734.29302978515625 735.92498779296875 740.656005859375 745.10797119140625 751.239990234375 756.23199462890625 761.073974609375 767.23602294921875 777.36700439453125 786.97900390625 798.1510009765625 -9999 -9999 -9999 -9999 -9999 -9999 -9999 -9999 -9999 -9999 -9999 -9999 -9999 -9999 -9999 -9999 -9999 -9999 -9999 -9999 -9999 -9999 -9999 -9999 -9999 -9999 -9999 -9999 -9999 -9999 -9999 -9999 -9999 -9999 -9999 -9999 -9999 -9999 -9999 -9999 -9999 -9999 -9999 -9999 -9999 -9999 -9999 -9999
-9999 -9999 -9999 -9999 -9999 -9999 -9999 -9999 -9999 -9999 -9999 -9999 -9999 -9999 -9999 -9999 -9999 -9999 -9999 -9999 -9999 -9999 -9999 -9999 -9999 -9999 -9999 -9999 -9999 -9999 -9999 -9999 -9999 -9999 -9999 -9999 -9999 -9999 -9999 -9999 -9999 -9999 -9999 1452.9730224609375 1440.2850341796875 1429.1669921875 1414.0889892578125 1395.27099609375 1377.1429443359375 1356.175048828125 1342.2769775390625 1327.779052734375 1310.321044921875 1287.2130126953125 1268.5150146484375 1254.5970458984375 1230.6390380859375 1225.6309814453125 1218.762939453125 1183.2349853515625 1171.3270263671875 1163.468017578125 1150.3900146484375 1152.802001953125 1159.833984375 1164.14599609375 1167.2879638671875 1172.9000244140625 1177.4420166015625 1174.9239501953125 1152.4560546875 1139.387939453125 1126.5400390625 1113.81201171875 1101.56396484375 1089.2359619140625 1073.6080322265625 1072.219970703125 1069.6319580078125 1066.1429443359375 1066.344970703125 1071.7469482421875 1073.458984375 1069.510986328125 1067.7130126953125 1058.7349853515625 1051.2869873046875 1042.5389404296875 1035.5009765625 1025.802978515625 1017.45501708984375 1013.24700927734375 1007.76898193359375 1004.27099609375 1000.093017578125 988.2650146484375 977.71697998046875 965.8480224609375 949.78997802734375 927.46197509765625 912.5040283203125 898.44598388671875 885.7080078125 874.510009765625 859.35198974609375 843.17401123046875 824.08599853515625 810.8079833984375 801.3699951171875 798.60198974609375 790.2039794921875 775.0360107421875 767.38800048828125 760.489013671875 758.23101806640625 756.343017578125 754.57501220703125 751.8170166015625 747.29901123046875 745.59002685546875 742.25201416015625 738.66400146484375 734.6259765625 731.5479736328125 726.239990234375 724.6719970703125 723.323974609375 722.22601318359375 720.10797119140625 719.78900146484375 718.74102783203125 718.3330078125 717.68499755859375 717.51702880859375 717.239013671875 715.84002685546875 715.71197509765625 715.39398193359375 714.73602294921875 714.468017578125 714.1099853515625 713.822021484375 713.322998046875 713.094970703125 713.2969970703125 711.3189697265625 706.24102783203125 705.63299560546875 702.083984375 705.2659912109375 710.0579833984375 711.760009765625 714.1519775390625 722.78399658203125 728.5050048828125 730.59698486328125 734.489013671875 735.1810302734375 736.65301513671875 742.69500732421875 747.0670166015625 750.43798828125 755.80999755859375 758.12200927734375 767.7440185546875 775.20599365234375 782.77801513671875 793.698974609375 808.98101806640625 820.98297119140625 -9999 -9999 -9999 -9999 -9999 -9999 -9999 -9999 -9999 -9999 -9999 -9999 -9999 -9999 -9999 -9999 -9999 -9999 -9999 -9999 -9999 -9999 -9999 -9999 -9999 -9999 -9999 -9999 -9999 -9999 -9999 -9999 -9999 -9999 -9999 -9999 -9999 -9999 -9999 -9999 -9999 -9999 -9999 -9999 -9999 -9999 -9999
