ncols        252
nrows        29
xllcorner    631072
yllcorner    5132668
cellsize     30.000000000000
NODATA_value  -9999
-9999 -9999 -9999 -9999 -9999 -9999 -9999 -9999 -9999 -9999 -9999 -9999 -9999 -9999 -9999 -9999 -9999 -9999 -9999 -9999 -9999 -9999 -9999 -9999 -9999 -9999 -9999 -9999 -9999 -9999 -9999 -9999 -9999 -9999 -9999 -9999 -9999 -9999 -9999 -9999 -9999 -9999 -9999 -9999 -9999 -9999 -9999 -9999 -9999 -9999 -9999 -9999 -9999 -9999 -9999 -9999 -9999 -9999 -9999 -9999 -9999 -9999 -9999 -9999 -9999 -9999 -9999 -9999 -9999 -9999 -9999 -9999 -9999 -9999 -9999 -9999 -9999 -9999 -9999 -9999 -9999 -9999 -9999 -9999 -9999 -9999 -9999 -9999 -9999 -9999 -9999 -9999 -9999 -9999 -9999 -9999 -9999 -9999 -9999 2324.757080078125 2317.39794921875 2310.22900390625 2296.2490234375 2284.179931640625 2274.77099609375 2264.6220703125 2255.93310546875 2246.85400390625 2235.794921875 2222.416015625 2210.45703125 2195.027099609375 2180.837890625 2165.888916015625 2159.409912109375 2151.990966796875 2138.7119140625 2133.5029296875 2123.93408203125 2115.784912109375 2113.785888671875 2112.02587890625 2101.56689453125 2096.258056640625 2087.18896484375 2077.080078125 2069.841064453125 2060.572021484375 2055.93310546875 2058.614013671875 2058.97509765625 2052.794921875 2042.115966796875 2030.177001953125 2020.8079833984375 2014.739013671875 2008.0899658203125 2005.551025390625 2002.802001953125 1996.262939453125 1983.154052734375 1968.333984375 1966.655029296875 1968.676025390625 1962.89697265625 1954.39794921875 1944.3289794921875 1934.8499755859375 1922.6510009765625 1912.261962890625 1904.9119873046875 1893.7130126953125 1884.073974609375 1875.39501953125 1863.7960205078125 1852.3270263671875 1845.43798828125 1840.698974609375 1824.9000244140625 1808.291015625 1783.321044921875 1768.56201171875 1782.9429931640625 1790.5240478515625 1799.416015625 1803.2869873046875 1804.8690185546875 1801.6209716796875 1805.842041015625 1806.884033203125 1801.0059814453125 1789.3470458984375 1765.8289794921875 1749.2110595703125 1760.9620361328125 1778.833984375 1787.10595703125 1797.5269775390625 1814.5989990234375 1832.7110595703125 1848.56201171875 1863.843994140625 1878.7459716796875 1894.0870361328125 1903.6689453125 1917.5909423828125 1939.241943359375 1959.904052734375 1974.35595703125 1992.2969970703125 2010.218994140625 2028.0909423828125 2040.991943359375 2045.4339599609375 2046.9649658203125 2045.156982421875 2044.509033203125 2042.030029296875 2030.072021484375 2025.7540283203125 2020.0450439453125 2016.70703125 2014.948974609375 2016.0699462890625 2007.81201171875 1992.364013671875 1985.344970703125 1976.406982421875 1967.5889892578125 1958.7099609375 1948.9320068359375 1939.2440185546875 1930.7049560546875 1934.20703125 1929.239013671875 1917.300048828125 1918.3919677734375 1925.904052734375 1931.0150146484375 1937.5369873046875 1952.218994140625 1971.9100341796875 1997.322021484375 2019.2939453125 2041.2850341796875 2062.987060546875 2080.948974609375 2093.580078125 2096.9619140625 2100.00390625 2098.89501953125 2094.656982421875 2080.91796875 2072.0400390625 2056.862060546875 2045.032958984375 2031.5350341796875 2017.3070068359375 1994.72802734375 1974.8699951171875 1974.261962890625 1961.9930419921875 1949.925048828125 1935.8070068359375 1924.22802734375 1914.9000244140625 1901.58203125 1920.9530029296875 1952.5560302734375 1969.5279541015625 1984.5999755859375 2004.0419921875
-9999 -9999 -9999 -9999 -9999 -9999 -9999 -9999 -9999 -9999 -9999 -9999 -9999 -9999 -9999 -9999 -9999 -9999 -9999 -9999 -9999 -9999 -9999 -9999 -9999 -9999 -9999 -9999 -9999 -9999 -9999 -9999 -9999 -9999 -9999 -9999 -9999 -9999 -9999 -9999 -9999 -9999 -9999 -9999 -9999 -9999 -9999 -9999 -9999 -9999 -9999 -9999 -9999 -9999 -9999 -9999 -9999 -9999 -9999 -9999 -9999 -9999 -9999 -9999 -9999 -9999 -9999 -9999 -9999 -9999 -9999 -9999 -9999 -9999 -9999 -9999 -9999 -9999 -9999 -9999 -9999 -9999 -9999 -9999 -9999 -9999 -9999 -9999 -9999 -9999 -9999 -9999 -9999 -9999 -9999 -9999 -9999 -9999 -9999 -9999 2313.698974609375 2304.050048828125 2292.19091796875 2281.10205078125 2274.681884765625 2264.952880859375 2255.48388671875 2244.7548828125 2231.39599609375 2215.876953125 2207.01806640625 2195.259033203125 2180.9599609375 2169.0810546875 2159.06103515625 2146.2119140625 2135.972900390625 2127.993896484375 2118.77490234375 2108.35595703125 2098.116943359375 2093.968017578125 2086.89892578125 2081.260009765625 2076.110107421875 2071.551025390625 2063.652099609375 2055.032958984375 2045.843994140625 2041.5550537109375 2043.8260498046875 2043.7469482421875 2039.738037109375 2030.5179443359375 2018.26904296875 2009.5999755859375 2000.051025390625 1994.8919677734375 1994.7430419921875 1991.364013671875 1985.5450439453125 1975.2259521484375 1964.0970458984375 1952.43701171875 1950.137939453125 1949.68896484375 1943.9200439453125 1934.6610107421875 1926.2220458984375 1916.31298828125 1905.06396484375 1894.81494140625 1884.7650146484375 1877.595947265625 1869.967041015625 1856.93798828125 1845.0989990234375 1838.4100341796875 1824.1209716796875 1809.9219970703125 1793.593017578125 1773.4339599609375 1754.114013671875 1767.39501953125 1774.636962890625 1777.6090087890625 1779.5699462890625 1782.27197265625 1784.9239501953125 1770.385009765625 1772.906982421875 1752.468994140625 1739.8900146484375 1742.35205078125 1761.5340576171875 1769.2550048828125 1773.7569580078125 1784.22900390625 1803.449951171875 1816.4620361328125 1828.14404296875 1840.7249755859375 1859.0970458984375 1879.137939453125 1896.260009765625 1915.6719970703125 1935.2530517578125 1952.2950439453125 1969.0269775390625 1989.238037109375 2006.1099853515625 2021.6619873046875 2032.4630126953125 2034.4949951171875 2033.0269775390625 2031.0379638671875 2028.18994140625 2022.56201171875 2013.383056640625 1998.5550537109375 1993.5770263671875 1989.41796875 1991.760009765625 1994.02197265625 1991.1929931640625 1979.155029296875 1960.5169677734375 1962.657958984375 1955.75 1947.1920166015625 1939.2230224609375 1929.2449951171875 1917.237060546875 1916.637939453125 1915.5799560546875 1914.011962890625 1905.5030517578125 1916.9849853515625 1921.7469482421875 1932.0479736328125 1950.4200439453125 1968.9420166015625 1990.883056640625 2016.9449462890625 2037.9659423828125 2056.7880859375 2070.72998046875 2082.15087890625 2087.032958984375 2087.864990234375 2085.35595703125 2080.327880859375 2063.77001953125 2051.65087890625 2038.322998046875 2023.675048828125 2000.5159912109375 1988.43798828125 1977.77001953125 1959.031005859375 1937.4830322265625 1930.7349853515625 1921.3060302734375 1910.387939453125 1901.81005859375 1893.1109619140625 1884.9830322265625 1909.175048828125 1939.7669677734375 1961.8690185546875 1993.051025390625 2010.3929443359375
-9999 -9999 -9999 -9999 -9999 -9999 -9999 -9999 -9999 -9999 -9999 -9999 -9999 -9999 -9999 -9999 -9999 -9999 -9999 -9999 -9999 -9999 -9999 -9999 -9999 -9999 -9999 -9999 -9999 -9999 -9999 -9999 -9999 -9999 -9999 -9999 -9999 -9999 -9999 -9999 -9999 -9999 -9999 -9999 -9999 -9999 -9999 -9999 -9999 -9999 -9999 -9999 -9999 -9999 -9999 -9999 -9999 -9999 -9999 -9999 -9999 -9999 -9999 -9999 -9999 -9999 -9999 -9999 -9999 -9999 -9999 -9999 -9999 -9999 -9999 -9999 -9999 -9999 -9999 -9999 -9999 -9999 -9999 -9999 -9999 -9999 -9999 -9999 -9999 -9999 -9999 -9999 -9999 -9999 -9999 -9999 -9999 -9999 -9999 -9999 2312.909912109375 2304.5009765625 2291.23193359375 2280.23291015625 2273.2529296875 2263.263916015625 2251.655029296875 2239.176025390625 2228.866943359375 2211.80810546875 2201.708984375 2192.050048828125 2179.4609375 2169.15087890625 2155.072021484375 2144.98291015625 2135.843994140625 2126.135009765625 2116.76611328125 2102.037109375 2089.867919921875 2081.2890625 2076.89990234375 2075.929931640625 2066.89111328125 2059.7119140625 2052.7529296875 2047.6839599609375 2041.864990234375 2034.095947265625 2032.4169921875 2032.3780517578125 2032.988037109375 2028.8389892578125 2018.31005859375 2005.8709716796875 1995.491943359375 1987.113037109375 1987.0040283203125 1985.7449951171875 1982.3260498046875 1975.72705078125 1967.9169921875 1959.0379638671875 1946.3790283203125 1936.0799560546875 1929.220947265625 1926.1820068359375 1919.4329833984375 1916.1739501953125 1908.7149658203125 1896.0550537109375 1885.8360595703125 1879.2969970703125 1871.7979736328125 1861.1390380859375 1848.260009765625 1838.8609619140625 1830.1519775390625 1812.822998046875 1801.2430419921875 1786.7340087890625 1764.114990234375 1740.095947265625 1757.8580322265625 1759.489013671875 1760.4110107421875 1764.802978515625 1769.9940185546875 1751.85595703125 1743.43798828125 1722.6689453125 1729.791015625 1746.113037109375 1754.4840087890625 1760.7659912109375 1767.16796875 1775.178955078125 1789.9410400390625 1807.123046875 1826.904052734375 1845.9659423828125 1863.8280029296875 1881.3590087890625 1897.5009765625 1920.302978515625 1934.3740234375 1947.7259521484375 1968.5179443359375 1988.7989501953125 2007.02099609375 2018.012939453125 2025.85400390625 2026.0059814453125 2024.1180419921875 2021.8189697265625 2016.571044921875 2009.6429443359375 1998.4739990234375 1983.7559814453125 1973.8179931640625 1968.9090576171875 1971.1910400390625 1973.9630126953125 1970.7540283203125 1958.8260498046875 1942.0670166015625 1950.1290283203125 1946.6209716796875 1937.362060546875 1929.81396484375 1919.9959716796875 1908.39697265625 1901.5689697265625 1900.3809814453125 1898.842041015625 1900.2039794921875 1909.865966796875 1916.5770263671875 1933.6290283203125 1952.7509765625 1973.31201171875 1996.343994140625 2016.4659423828125 2037.5169677734375 2052.09912109375 2065.39111328125 2074.152099609375 2079.134033203125 2078.426025390625 2073.2470703125 2061.26904296875 2050.430908203125 2035.1619873046875 2021.823974609375 2010.39599609375 1986.0970458984375 1968.8089599609375 1955.6610107421875 1945.511962890625 1927.593994140625 1909.7359619140625 1900.737060546875 1889.6390380859375 1878.541015625 1878.9420166015625 1872.634033203125 1895.85595703125 1926.8680419921875 1951.260009765625 1985.031982421875 2000.3740234375
-9999 -9999 -9999 -9999 -9999 -9999 -9999 -9999 -9999 -9999 -9999 -9999 -9999 -9999 -9999 -9999 -9999 -9999 -9999 -9999 -9999 -9999 -9999 -9999 -9999 -9999 -9999 -9999 -9999 -9999 -9999 -9999 -9999 -9999 -9999 -9999 -9999 -9999 -9999 -9999 -9999 -9999 -9999 -9999 -9999 -9999 -9999 -9999 -9999 -9999 -9999 -9999 -9999 -9999 -9999 -9999 -9999 -9999 -9999 -9999 -9999 -9999 -9999 -9999 -9999 -9999 -9999 -9999 -9999 -9999 -9999 -9999 -9999 -9999 -9999 -9999 -9999 -9999 -9999 -9999 -9999 -9999 -9999 -9999 -9999 -9999 -9999 -9999 -9999 -9999 -9999 -9999 -9999 -9999 -9999 -9999 -9999 -9999 -9999 -9999 -9999 2304.39208984375 2290.123046875 2281.472900390625 2271.02392578125 2260.824951171875 2250.27587890625 2237.0869140625 2225.157958984375 2212.26904296875 2201.8701171875 2188.5009765625 2176.69091796875 2165.77197265625 2152.462890625 2144.56396484375 2137.5048828125 2124.68603515625 2111.777099609375 2097.468017578125 2085.158935546875 2078.239990234375 2070.800048828125 2070.40087890625 2060.9619140625 2054.962890625 2047.7740478515625 2043.18505859375 2037.385986328125 2029.18701171875 2024.9580078125 2024.718017578125 2023.51904296875 2022.9100341796875 2016.6009521484375 2006.02197265625 1994.052978515625 1983.1739501953125 1979.18505859375 1978.2659912109375 1976.8370361328125 1973.447021484375 1967.0679931640625 1957.779052734375 1952.47998046875 1943.1710205078125 1929.4119873046875 1921.7130126953125 1912.134033203125 1905.1949462890625 1901.885009765625 1896.9759521484375 1888.43701171875 1881.5679931640625 1871.468994140625 1860.81005859375 1850.77099609375 1843.7320556640625 1832.7030029296875 1817.383056640625 1803.2740478515625 1785.5849609375 1767.64599609375 1753.89697265625 1731.72900390625 1744.5799560546875 1747.2220458984375 1749.2640380859375 1748.2950439453125 1741.3270263671875 1719.529052734375 1714.6199951171875 1728.4420166015625 1737.154052734375 1742.574951171875 1746.89697265625 1758.279052734375 1767.4599609375 1783.06201171875 1801.4940185546875 1822.7249755859375 1843.0069580078125 1862.0689697265625 1878.6800537109375 1897.4119873046875 1917.0040283203125 1933.7349853515625 1949.22705078125 1965.7679443359375 1985.3299560546875 2001.9119873046875 2011.2530517578125 2019.5849609375 2019.886962890625 2015.2979736328125 2012.75 2005.83203125 1999.31298828125 1987.0150146484375 1969.3370361328125 1963.998046875 1954.6300048828125 1954.4320068359375 1953.9930419921875 1947.9549560546875 1938.7669677734375 1930.66796875 1933.6600341796875 1935.9320068359375 1928.363037109375 1919.7449951171875 1911.20703125 1899.427978515625 1894.0999755859375 1891.9420166015625 1891.822998046875 1892.8050537109375 1900.6669921875 1914.5279541015625 1939.18994140625 1957.991943359375 1979.35302734375 2002.10498046875 2023.126953125 2035.5880126953125 2047.6199951171875 2059.241943359375 2064.282958984375 2067.635009765625 2070.027099609375 2060.758056640625 2042.489990234375 2031.741943359375 2016.9830322265625 1999.7049560546875 1990.0069580078125 1976.5279541015625 1954.3499755859375 1933.322021484375 1921.6529541015625 1911.2249755859375 1896.5570068359375 1884.3780517578125 1871.449951171875 1860.4119873046875 1862.2330322265625 1865.4949951171875 1888.237060546875 1917.4990234375 1940.510986328125 1966.093017578125 1977.094970703125
-9999 -9999 -9999 -9999 -9999 -9999 -9999 -9999 -9999 -9999 -9999 -9999 -9999 -9999 -9999 -9999 -9999 -9999 -9999 -9999 -9999 -9999 -9999 -9999 -9999 -9999 -9999 -9999 -9999 -9999 -9999 -9999 -9999 -9999 -9999 -9999 -9999 -9999 -9999 -9999 -9999 -9999 -9999 -9999 -9999 -9999 -9999 -9999 -9999 -9999 -9999 -9999 -9999 -9999 -9999 -9999 -9999 -9999 -9999 -9999 -9999 -9999 -9999 -9999 -9999 -9999 -9999 -9999 -9999 -9999 -9999 -9999 -9999 -9999 -9999 -9999 -9999 -9999 -9999 -9999 -9999 -9999 -9999 -9999 -9999 -9999 -9999 -9999 -9999 -9999 -9999 -9999 -9999 -9999 -9999 -9999 -9999 -9999 -9999 -9999 -9999 2302.56298828125 2290.873046875 2281.47412109375 2271.554931640625 2257.89599609375 2245.26708984375 2233.778076171875 2222.84912109375 2211.610107421875 2198.56103515625 2185.14111328125 2173.132080078125 2162.98291015625 2150.77392578125 2142.635009765625 2137.595947265625 2126.096923828125 2109.3779296875 2093.6689453125 2082.56005859375 2074.6201171875 2070.2509765625 2062.001953125 2055.27294921875 2047.5140380859375 2041.3349609375 2034.7060546875 2030.5670166015625 2024.41796875 2019.7679443359375 2018.1190185546875 2015.8199462890625 2013.4510498046875 2011.001953125 2004.29296875 1994.9739990234375 1984.9949951171875 1977.196044921875 1972.365966796875 1968.7569580078125 1966.508056640625 1962.43896484375 1955.1500244140625 1946.3409423828125 1941.58203125 1931.2530517578125 1923.3740234375 1914.655029296875 1901.9849853515625 1890.5860595703125 1883.5870361328125 1881.498046875 1874.3489990234375 1865.1400146484375 1855.4610595703125 1847.8819580078125 1840.6729736328125 1830.052978515625 1816.2239990234375 1796.8349609375 1779.3759765625 1763.0169677734375 1752.5780029296875 1736.510009765625 1723.4110107421875 1732.873046875 1731.803955078125 1726.0360107421875 1724.5579833984375 1706.8890380859375 1704.9610595703125 1719.3929443359375 1732.364013671875 1736.095947265625 1741.68798828125 1754.3990478515625 1765.6610107421875 1782.56298828125 1801.654052734375 1820.7159423828125 1839.68798828125 1859.3590087890625 1879.1510009765625 1896.81298828125 1914.9539794921875 1929.7659912109375 1943.697998046875 1960.2889404296875 1978.791015625 1991.04296875 2001.9539794921875 2011.135986328125 2012.66796875 2007.958984375 2003.7110595703125 1996.2330322265625 1988.404052734375 1977.5360107421875 1959.427978515625 1951.2989501953125 1946.541015625 1935.4329833984375 1937.0040283203125 1927.676025390625 1916.887939453125 1920.4990234375 1920.4610595703125 1921.802978515625 1916.9539794921875 1910.39599609375 1903.498046875 1893.0589599609375 1886.6409912109375 1882.4630126953125 1882.9239501953125 1888.7159423828125 1895.22802734375 1920.279052734375 1943.2110595703125 1964.123046875 1989.073974609375 2007.3360595703125 2022.8680419921875 2032.3289794921875 2043.291015625 2049.693115234375 2056.634033203125 2058.676025390625 2058.4169921875 2045.8990478515625 2031.301025390625 2009.6920166015625 1997.9739990234375 1981.5260009765625 1971.366943359375 1964.43896484375 1944.23095703125 1922.60205078125 1902.114013671875 1895.906005859375 1881.447021484375 1868.6490478515625 1851.9410400390625 1843.10205078125 1842.6739501953125 1862.2459716796875 1881.2469482421875 1908.739990234375 1931.491943359375 1944.9940185546875 1959.0260009765625
-9999 -9999 -9999 -9999 -9999 -9999 -9999 -9999 -9999 -9999 -9999 -9999 -9999 -9999 -9999 -9999 -9999 -9999 -9999 -9999 -9999 -9999 -9999 -9999 -9999 -9999 -9999 -9999 -9999 -9999 -9999 -9999 -9999 -9999 -9999 -9999 -9999 -9999 -9999 -9999 -9999 -9999 -9999 -9999 -9999 -9999 -9999 -9999 -9999 -9999 -9999 -9999 -9999 -9999 -9999 -9999 -9999 -9999 -9999 -9999 -9999 -9999 -9999 -9999 -9999 -9999 -9999 -9999 -9999 -9999 -9999 -9999 -9999 -9999 -9999 -9999 -9999 -9999 -9999 -9999 -9999 -9999 -9999 -9999 -9999 -9999 -9999 -9999 -9999 -9999 -9999 -9999 -9999 -9999 -9999 -9999 -9999 -9999 -9999 -9999 -9999 -9999 2289.513916015625 2278.364990234375 2267.135986328125 2256.97705078125 2244.72802734375 2233.9990234375 2220.360107421875 2204.970947265625 2192.991943359375 2178.5419921875 2167.472900390625 2158.64404296875 2146.72509765625 2139.49609375 2135.7470703125 2122.887939453125 2107.618896484375 2090.159912109375 2074.989990234375 2071.27099609375 2066.9619140625 2059.89306640625 2051.2939453125 2041.7850341796875 2035.4659423828125 2028.866943359375 2024.7879638671875 2021.947998046875 2016.4090576171875 2011.8699951171875 2010.8609619140625 2006.092041015625 2000.9429931640625 1997.884033203125 1993.9150390625 1986.7659912109375 1978.446044921875 1969.636962890625 1964.0780029296875 1959.1689453125 1955.43994140625 1947.9110107421875 1941.3919677734375 1934.29296875 1930.884033203125 1923.93505859375 1917.7449951171875 1906.7960205078125 1894.5670166015625 1882.258056640625 1873.6390380859375 1864.5699462890625 1857.3809814453125 1848.56201171875 1839.282958984375 1834.2230224609375 1820.06396484375 1805.93505859375 1790.115966796875 1777.0169677734375 1759.657958984375 1748.3790283203125 1733.7900390625 1715.9119873046875 1707.2440185546875 1717.6949462890625 1718.7569580078125 1709.9990234375 1699.5 1699.9720458984375 1713.3740234375 1726.7750244140625 1729.39697265625 1734.8690185546875 1749.1700439453125 1762.302001953125 1778.7540283203125 1797.0849609375 1817.45703125 1837.93896484375 1857.9100341796875 1878.281982421875 1894.4840087890625 1911.85498046875 1925.2969970703125 1939.0989990234375 1953.7900390625 1970.612060546875 1983.904052734375 1993.7349853515625 2001.45703125 2003.208984375 1998.6099853515625 1993.9119873046875 1987.6639404296875 1977.7850341796875 1967.487060546875 1949.8690185546875 1943.1800537109375 1934.761962890625 1924.5030517578125 1918.7249755859375 1911.467041015625 1908.6080322265625 1910.27001953125 1908.6820068359375 1906.7530517578125 1905.9649658203125 1902.0369873046875 1896.008056640625 1886.1600341796875 1877.9820556640625 1873.123046875 1878.7750244140625 1886.947021484375 1899.697998046875 1923.4300537109375 1946.1619873046875 1966.532958984375 1986.4749755859375 2005.68701171875 2018.1280517578125 2029.989990234375 2038.6219482421875 2046.9630126953125 2051.675048828125 2051.677001953125 2047.197998046875 2032.050048828125 2019.1419677734375 2001.072998046875 1976.385009765625 1963.656982421875 1948.2879638671875 1947.780029296875 1926.9620361328125 1910.123046875 1892.4549560546875 1874.8070068359375 1864.18798828125 1849.68994140625 1832.81201171875 1827.873046875 1840.094970703125 1856.89697265625 1870.0780029296875 1896.7509765625 1913.593017578125 1931.074951171875 1952.427001953125
-9999 -9999 -9999 -9999 -9999 -9999 -9999 -9999 -9999 -9999 -9999 -9999 -9999 -9999 -9999 -9999 -9999 -9999 -9999 -9999 -9999 -9999 -9999 -9999 -9999 -9999 -9999 -9999 -9999 -9999 -9999 -9999 -9999 -9999 -9999 -9999 -9999 -9999 -9999 -9999 -9999 -9999 -9999 -9999 -9999 -9999 -9999 -9999 -9999 -9999 -9999 -9999 -9999 -9999 -9999 -9999 -9999 -9999 -9999 -9999 -9999 -9999 -9999 -9999 -9999 -9999 -9999 -9999 -9999 -9999 -9999 -9999 -9999 -9999 -9999 -9999 -9999 -9999 -9999 -9999 -9999 -9999 -9999 -9999 -9999 -9999 -9999 -9999 -9999 -9999 -9999 -9999 -9999 -9999 -9999 -9999 -9999 -9999 -9999 -9999 -9999 -9999 2284.375 2273.2060546875 2266.616943359375 2255.097900390625 2240.6689453125 2232.260009765625 2218.35107421875 2202.0419921875 2189.612060546875 2176.153076171875 2165.72412109375 2154.014892578125 2141.135986328125 2135.656982421875 2132.218017578125 2121.01904296875 2107.239990234375 2090.280029296875 2076.9609375 2067.781982421875 2065.222900390625 2058.10400390625 2048.2548828125 2038.426025390625 2031.717041015625 2024.637939453125 2021.0379638671875 2018.4090576171875 2012.469970703125 2006.8409423828125 2006.2320556640625 2002.7330322265625 1995.5439453125 1992.06494140625 1991.0560302734375 1986.7860107421875 1980.3270263671875 1970.47802734375 1962.76904296875 1954.5999755859375 1948.6209716796875 1942.9620361328125 1937.04296875 1930.4940185546875 1926.0040283203125 1919.7550048828125 1916.176025390625 1909.2669677734375 1899.91796875 1888.7490234375 1879.1400146484375 1875.52099609375 1865.1319580078125 1857.85302734375 1849.363037109375 1841.2239990234375 1830.0150146484375 1812.0660400390625 1800.4169921875 1782.3380126953125 1772.9090576171875 1762.6800537109375 1745.8909912109375 1730.02294921875 1708.81494140625 1692.906005859375 1702.468017578125 1700.260009765625 1687.8709716796875 1688.863037109375 1707.885009765625 1714.176025390625 1723.3480224609375 1726.72900390625 1741.48095703125 1753.822998046875 1773.2139892578125 1794.4859619140625 1813.8480224609375 1834.009033203125 1853.541015625 1875.10302734375 1888.7139892578125 1905.4859619140625 1920.7979736328125 1931.5489501953125 1948.0909423828125 1963.863037109375 1975.323974609375 1986.0760498046875 1991.8079833984375 1992.18896484375 1989.3310546875 1984.822998046875 1977.2340087890625 1966.60595703125 1955.907958984375 1941.1190185546875 1932.801025390625 1921.9730224609375 1912.384033203125 1899.1259765625 1891.16796875 1894.718994140625 1895.4610595703125 1894.27294921875 1891.404052734375 1893.135986328125 1891.4580078125 1887.8189697265625 1878.7010498046875 1869.1829833984375 1865.823974609375 1876.635986328125 1885.758056640625 1903.2989501953125 1928.220947265625 1947.1529541015625 1965.56396484375 1983.8759765625 1998.8079833984375 2012.5689697265625 2026.8909912109375 2033.4429931640625 2039.9940185546875 2044.0760498046875 2044.3480224609375 2038.948974609375 2021.1510009765625 2002.4930419921875 1985.3740234375 1964.0860595703125 1946.5780029296875 1930.0589599609375 1927.4510498046875 1910.9930419921875 1891.81396484375 1877.64599609375 1860.927978515625 1846.3089599609375 1835.02099609375 1817.77294921875 1812.1839599609375 1832.5560302734375 1841.887939453125 1858.3489990234375 1885.9019775390625 1913.31396484375 1938.0760498046875 1958.22802734375
-9999 -9999 -9999 -9999 -9999 -9999 -9999 -9999 -9999 -9999 -9999 -9999 -9999 -9999 -9999 -9999 -9999 -9999 -9999 -9999 -9999 -9999 -9999 -9999 -9999 -9999 -9999 -9999 -9999 -9999 -9999 -9999 -9999 -9999 -9999 -9999 -9999 -9999 -9999 -9999 -9999 -9999 -9999 -9999 -9999 -9999 -9999 -9999 -9999 -9999 -9999 -9999 -9999 -9999 -9999 -9999 -9999 -9999 -9999 -9999 -9999 -9999 -9999 -9999 -9999 -9999 -9999 -9999 -9999 -9999 -9999 -9999 -9999 -9999 -9999 -9999 -9999 -9999 -9999 -9999 -9999 -9999 -9999 -9999 -9999 -9999 -9999 -9999 -9999 -9999 -9999 -9999 -9999 -9999 -9999 -9999 -9999 -9999 -9999 -9999 -9999 -9999 2282.885986328125 2266.427001953125 2262.66796875 2250.868896484375 2237.820068359375 2226.541015625 2210.412109375 2199.751953125 2189.212890625 2174.72412109375 2164.094970703125 2150.466064453125 2135.277099609375 2131.738037109375 2124.5390625 2115.989990234375 2102.570068359375 2088.801025390625 2077.33203125 2069.48291015625 2063.364013671875 2057.43505859375 2047.3360595703125 2035.7969970703125 2024.18798828125 2014.7679443359375 2013.6590576171875 2008.9599609375 2002.291015625 1999.842041015625 1997.1429443359375 1996.323974609375 1992.7349853515625 1988.676025390625 1986.845947265625 1985.3070068359375 1981.1080322265625 1972.9990234375 1963.3299560546875 1950.9110107421875 1943.81201171875 1937.9630126953125 1932.083984375 1928.5240478515625 1922.7850341796875 1914.7259521484375 1910.7669677734375 1906.0980224609375 1900.22900390625 1894.5699462890625 1882.3609619140625 1874.0419921875 1866.02197265625 1860.532958984375 1853.2239990234375 1842.125 1833.615966796875 1811.697021484375 1800.8780517578125 1788.4090576171875 1774.8599853515625 1760.68994140625 1747.1920166015625 1738.073974609375 1718.14501953125 1697.7669677734375 1680.489013671875 1686.3800048828125 1680.072021484375 1686.323974609375 1698.2550048828125 1702.93701171875 1711.6190185546875 1724.0799560546875 1733.842041015625 1749.7740478515625 1769.5350341796875 1789.217041015625 1808.1490478515625 1828.8699951171875 1848.6219482421875 1867.5140380859375 1882.64501953125 1896.7469482421875 1909.3389892578125 1923.1099853515625 1939.9620361328125 1956.64404296875 1968.56494140625 1976.5069580078125 1980.7989501953125 1981.3399658203125 1979.35205078125 1973.06396484375 1966.4449462890625 1954.386962890625 1938.279052734375 1929.489990234375 1926.02197265625 1914.2340087890625 1900.1949462890625 1892.45703125 1883.8690185546875 1883.97998046875 1885.8819580078125 1881.7540283203125 1878.344970703125 1879.177001953125 1876.208984375 1876.06005859375 1872.501953125 1858.2939453125 1862.594970703125 1874.2669677734375 1883.8189697265625 1907.6800537109375 1931.612060546875 1949.2039794921875 1962.1650390625 1975.8470458984375 1991.4090576171875 2006.1500244140625 2019.511962890625 2029.4239501953125 2032.614990234375 2035.7669677734375 2036.1290283203125 2030.1700439453125 2011.1719970703125 1994.7540283203125 1971.885009765625 1948.9169921875 1930.18896484375 1916.81005859375 1902.60205078125 1898.5240478515625 1876.5150146484375 1859.947021484375 1841.8990478515625 1833.3199462890625 1820.4820556640625 1802.6739501953125 1799.0050048828125 1816.1669921875 1835.3690185546875 1855.18994140625 1885.032958984375 1907.553955078125 1932.845947265625 1954.2989501953125
-9999 -9999 -9999 -9999 -9999 -9999 -9999 -9999 -9999 -9999 -9999 -9999 -9999 -9999 -9999 -9999 -9999 -9999 -9999 -9999 -9999 -9999 -9999 -9999 -9999 -9999 -9999 -9999 -9999 -9999 -9999 -9999 -9999 -9999 -9999 -9999 -9999 -9999 -9999 -9999 -9999 -9999 -9999 -9999 -9999 -9999 -9999 -9999 -9999 -9999 -9999 -9999 -9999 -9999 -9999 -9999 -9999 -9999 -9999 -9999 -9999 -9999 -9999 -9999 -9999 -9999 -9999 -9999 -9999 -9999 -9999 -9999 -9999 -9999 -9999 -9999 -9999 -9999 -9999 -9999 -9999 -9999 -9999 -9999 -9999 -9999 -9999 -9999 -9999 -9999 -9999 -9999 -9999 -9999 -9999 -9999 -9999 -9999 -9999 -9999 -9999 -9999 2272.866943359375 2259.318115234375 2255.779052734375 2246.97998046875 2235.700927734375 2223.991943359375 2210.9619140625 2199.873046875 2187.6240234375 2175.68505859375 2164.49609375 2150.596923828125 2138.367919921875 2131.47900390625 2122.169921875 2113.43994140625 2100.841064453125 2086.302001953125 2073.39306640625 2067.3740234375 2064.06494140625 2054.47607421875 2045.927001953125 2034.2879638671875 2023.8780517578125 2013.698974609375 2004.8199462890625 2001.551025390625 1996.4320068359375 1993.6629638671875 1989.303955078125 1988.0849609375 1985.4959716796875 1983.2860107421875 1980.7769775390625 1980.5279541015625 1978.6490478515625 1972.8900146484375 1963.9510498046875 1951.7919921875 1940.6729736328125 1933.884033203125 1928.6639404296875 1924.824951171875 1919.7259521484375 1910.626953125 1907.2879638671875 1901.0689697265625 1894.6700439453125 1885.3909912109375 1880.491943359375 1875.4219970703125 1867.7030029296875 1860.1240234375 1850.574951171875 1838.8759765625 1822.9969482421875 1812.3580322265625 1799.3590087890625 1788.5 1771.719970703125 1756.1710205078125 1744.04296875 1737.3349609375 1721.7559814453125 1712.447998046875 1697.199951171875 1673.1209716796875 1662.6929931640625 1677.5550537109375 1680.3160400390625 1688.657958984375 1704.8599853515625 1710.551025390625 1726.883056640625 1747.175048828125 1764.176025390625 1784.008056640625 1803.1500244140625 1822.6510009765625 1840.8330078125 1860.5550537109375 1874.7659912109375 1888.488037109375 1901.208984375 1913.551025390625 1929.6629638671875 1943.1240234375 1959.156005859375 1966.258056640625 1968.739013671875 1969.8509521484375 1968.302978515625 1964.803955078125 1955.5860595703125 1941.758056640625 1928.489013671875 1920.970947265625 1916.04296875 1906.10400390625 1889.60595703125 1883.3380126953125 1874.948974609375 1873.8409423828125 1874.9429931640625 1870.6839599609375 1865.2760009765625 1864.748046875 1864.1590576171875 1861.1109619140625 1862.322998046875 1850.5439453125 1857.926025390625 1870.157958984375 1885.279052734375 1908.760986328125 1930.4630126953125 1943.573974609375 1956.5660400390625 1969.758056640625 1984.5689697265625 1999.291015625 2012.4029541015625 2023.81396484375 2026.7060546875 2027.5880126953125 2027.01904296875 2022.4210205078125 2002.9129638671875 1985.56396484375 1962.9659423828125 1940.3280029296875 1920.8289794921875 1899.31103515625 1882.113037109375 1879.1240234375 1864.7259521484375 1844.8780517578125 1826.5889892578125 1811.31103515625 1806.3330078125 1789.904052734375 1781.7659912109375 1803.8380126953125 1823.678955078125 1845.3809814453125 1881.7230224609375 1903.655029296875 1927.717041015625 1948.8189697265625
-9999 -9999 -9999 -9999 -9999 -9999 -9999 -9999 -9999 -9999 -9999 -9999 -9999 -9999 -9999 -9999 -9999 -9999 -9999 -9999 -9999 -9999 -9999 -9999 -9999 -9999 -9999 -9999 -9999 -9999 -9999 -9999 -9999 -9999 -9999 -9999 -9999 -9999 -9999 -9999 -9999 -9999 -9999 -9999 -9999 -9999 -9999 -9999 -9999 -9999 -9999 -9999 -9999 -9999 -9999 -9999 -9999 -9999 -9999 -9999 -9999 -9999 -9999 -9999 -9999 -9999 -9999 -9999 -9999 -9999 -9999 -9999 -9999 -9999 -9999 -9999 -9999 -9999 -9999 -9999 -9999 -9999 -9999 -9999 -9999 -9999 -9999 -9999 -9999 -9999 -9999 -9999 -9999 -9999 -9999 -9999 -9999 -9999 -9999 -9999 -9999 -9999 2264.2080078125 2255.4189453125 2249.449951171875 2243.591064453125 2230.612060546875 2220.802001953125 2211.173095703125 2199.52392578125 2185.5849609375 2176.055908203125 2163.126953125 2151.617919921875 2137.618896484375 2130.840087890625 2125.68994140625 2118.14111328125 2102.44189453125 2087.5830078125 2076.694091796875 2064.5048828125 2059.075927734375 2051.22705078125 2041.258056640625 2031.3179931640625 2021.509033203125 2011.9300537109375 2002.1009521484375 1993.7020263671875 1990.4429931640625 1989.614013671875 1983.2850341796875 1979.7259521484375 1975.666015625 1974.656982421875 1974.6180419921875 1973.448974609375 1972.260009765625 1968.9410400390625 1961.7120361328125 1952.06298828125 1938.89404296875 1931.1240234375 1924.14501953125 1919.3759765625 1914.886962890625 1907.3780517578125 1903.1490478515625 1892.0999755859375 1884.291015625 1880.0419921875 1878.33203125 1874.4429931640625 1866.31396484375 1859.7049560546875 1848.0360107421875 1832.45703125 1819.0780029296875 1811.259033203125 1797.780029296875 1785.77001953125 1766.8609619140625 1752.7020263671875 1744.5439453125 1736.0050048828125 1721.197021484375 1708.0789794921875 1692.8399658203125 1675.2120361328125 1657.1939697265625 1658.175048828125 1669.366943359375 1676.428955078125 1689.6400146484375 1700.02197265625 1717.31396484375 1737.68505859375 1759.717041015625 1777.5389404296875 1796.469970703125 1814.6219482421875 1833.2840576171875 1852.31494140625 1864.7769775390625 1879.72900390625 1894.4100341796875 1907.4119873046875 1921.2139892578125 1933.68505859375 1945.20703125 1960.18896484375 1962.550048828125 1963.011962890625 1959.864013671875 1953.7650146484375 1945.68701171875 1932.7490234375 1921.4100341796875 1912.322021484375 1903.904052734375 1897.5849609375 1880.7769775390625 1873.0789794921875 1865.77001953125 1862.4219970703125 1862.1739501953125 1857.35498046875 1855.47705078125 1852.5389404296875 1849.93994140625 1852.592041015625 1847.9739990234375 1842.9449462890625 1855.737060546875 1868.7989501953125 1887.3699951171875 1907.9520263671875 1926.1639404296875 1940.375 1951.406982421875 1962.8990478515625 1975.0400390625 1992.6719970703125 2004.553955078125 2011.675048828125 2018.2969970703125 2019.1490478515625 2018.3599853515625 2011.06201171875 1993.6739501953125 1979.7950439453125 1955.8570556640625 1929.239013671875 1910.47998046875 1889.9720458984375 1867.9139404296875 1858.8349609375 1849.5369873046875 1831.43896484375 1810.3499755859375 1794.822021484375 1783.364013671875 1772.405029296875 1771.177001953125 1796.7889404296875 1819.9300537109375 1843.822021484375 1878.9940185546875 1899.5059814453125 1918.407958984375 1931.77001953125
-9999 -9999 -9999 -9999 -9999 -9999 -9999 -9999 -9999 -9999 -9999 -9999 -9999 -9999 -9999 -9999 -9999 -9999 -9999 -9999 -9999 -9999 -9999 -9999 -9999 -9999 -9999 -9999 -9999 -9999 -9999 -9999 -9999 -9999 -9999 -9999 -9999 -9999 -9999 -9999 -9999 -9999 -9999 -9999 -9999 -9999 -9999 -9999 -9999 -9999 -9999 -9999 -9999 -9999 -9999 -9999 -9999 -9999 -9999 -9999 -9999 -9999 -9999 -9999 -9999 -9999 -9999 -9999 -9999 -9999 -9999 -9999 -9999 -9999 -9999 -9999 -9999 -9999 -9999 -9999 -9999 -9999 -9999 -9999 -9999 -9999 -9999 -9999 -9999 -9999 -9999 -9999 -9999 -9999 -9999 -9999 -9999 -9999 -9999 -9999 -9999 -9999 2258.868896484375 2251.22998046875 2244.031005859375 2238.451904296875 2229.843017578125 2219.6630859375 2208.31396484375 2197.385009765625 2182.716064453125 2173.76708984375 2161.68798828125 2148.968994140625 2137.550048828125 2130.94091796875 2124.930908203125 2118.991943359375 2105.822998046875 2091.053955078125 2079.4951171875 2067.756103515625 2057.85693359375 2047.22802734375 2037.468017578125 2028.968994140625 2019.75 2011.8809814453125 2001.302001953125 1991.7330322265625 1983.5340576171875 1981.2550048828125 1978.7659912109375 1972.656005859375 1967.8370361328125 1965.197998046875 1964.0489501953125 1962.1700439453125 1960.6209716796875 1958.491943359375 1955.4930419921875 1950.093994140625 1940.323974609375 1930.0849609375 1920.5360107421875 1914.636962890625 1909.8580322265625 1904.0889892578125 1897.43994140625 1888.31103515625 1880.6719970703125 1878.241943359375 1875.6929931640625 1872.4239501953125 1865.9549560546875 1858.89599609375 1847.5770263671875 1835.468017578125 1816.8590087890625 1805.5699462890625 1794.469970703125 1778.301025390625 1754.0419921875 1743.9530029296875 1737.844970703125 1728.5560302734375 1716.1280517578125 1708.25 1698.1409912109375 1679.5830078125 1661.4949951171875 1644.18603515625 1653.927978515625 1660.3900146484375 1672.6510009765625 1690.2130126953125 1709.6949462890625 1733.156005859375 1753.508056640625 1771.31005859375 1789.2509765625 1809.31298828125 1828.094970703125 1842.2060546875 1856.738037109375 1871.3900146484375 1887.6810302734375 1904.532958984375 1919.625 1931.0860595703125 1937.8280029296875 1953.1300048828125 1957.8809814453125 1957.7130126953125 1951.625 1946.656005859375 1935.677978515625 1924.68994140625 1913.821044921875 1905.0030517578125 1894.425048828125 1883.4859619140625 1869.5379638671875 1863.8699951171875 1855.470947265625 1852.29296875 1850.4749755859375 1845.64599609375 1843.5980224609375 1843.25 1836.5810546875 1836.512939453125 1831.2049560546875 1844.9659423828125 1853.5179443359375 1866.81005859375 1888.3809814453125 1906.322998046875 1921.405029296875 1934.35595703125 1949.738037109375 1959.4300537109375 1969.4310302734375 1982.1429443359375 1994.5550537109375 2002.2259521484375 2007.8780517578125 2008.43994140625 2006.821044921875 1998.56298828125 1982.2850341796875 1960.7159423828125 1940.008056640625 1918.18994140625 1899.4310302734375 1879.5830078125 1859.7950439453125 1840.7459716796875 1828.0780029296875 1816.75 1797.6710205078125 1774.77294921875 1764.155029296875 1753.2159423828125 1768.91796875 1789.52001953125 1812.6710205078125 1837.512939453125 1865.2750244140625 1883.4169921875 1901.6490478515625 1921.9610595703125
-9999 -9999 -9999 -9999 -9999 -9999 -9999 -9999 -9999 -9999 -9999 -9999 -9999 -9999 -9999 -9999 -9999 -9999 -9999 -9999 -9999 -9999 -9999 -9999 -9999 -9999 -9999 -9999 -9999 -9999 -9999 -9999 -9999 -9999 -9999 -9999 -9999 -9999 -9999 -9999 -9999 -9999 -9999 -9999 -9999 -9999 -9999 -9999 -9999 -9999 -9999 -9999 -9999 -9999 -9999 -9999 -9999 -9999 -9999 -9999 -9999 -9999 -9999 -9999 -9999 -9999 -9999 -9999 -9999 -9999 -9999 -9999 -9999 -9999 -9999 -9999 -9999 -9999 -9999 -9999 -9999 -9999 -9999 -9999 -9999 -9999 -9999 -9999 -9999 -9999 -9999 -9999 -9999 -9999 -9999 -9999 -9999 -9999 -9999 -9999 -9999 -9999 2256.22998046875 2250.9208984375 2244.7919921875 2235.443115234375 2230.43310546875 2217.7939453125 2203.784912109375 2191.785888671875 2181.116943359375 2169.258056640625 2158.4990234375 2148.699951171875 2137.81103515625 2130.381103515625 2124.322021484375 2116.992919921875 2106.214111328125 2094.455078125 2082.135986328125 2070.626953125 2058.367919921875 2049.0390625 2039.5689697265625 2028.5400390625 2019.260986328125 2011.302001953125 2001.77294921875 1992.0140380859375 1981.7950439453125 1974.696044921875 1972.2359619140625 1969.7669677734375 1964.3580322265625 1959.1090087890625 1955.280029296875 1952.1510009765625 1948.6719970703125 1945.5830078125 1943.5240478515625 1941.833984375 1936.7149658203125 1930.196044921875 1918.717041015625 1911.248046875 1905.198974609375 1900.3699951171875 1893.4610595703125 1883.592041015625 1878.2220458984375 1873.883056640625 1870.5439453125 1869.3050537109375 1862.7960205078125 1855.7869873046875 1845.4580078125 1831.18896484375 1816.7989501953125 1802.0699462890625 1788.23095703125 1770.8719482421875 1747.9029541015625 1736.9840087890625 1730.5159912109375 1723.43701171875 1711.9189453125 1702.0799560546875 1693.342041015625 1675.7039794921875 1663.0350341796875 1648.626953125 1636.8590087890625 1650.010009765625 1662.60205078125 1681.35400390625 1703.89501953125 1722.376953125 1745.26904296875 1762.3599853515625 1781.6219482421875 1802.7340087890625 1818.0050048828125 1831.217041015625 1846.989013671875 1863.550048828125 1883.342041015625 1899.2540283203125 1912.7650146484375 1924.97705078125 1933.468994140625 1947.7900390625 1952.10205078125 1951.884033203125 1946.2650146484375 1939.3170166015625 1928.3790283203125 1918.550048828125 1909.1920166015625 1899.85400390625 1885.64501953125 1875.116943359375 1865.218994140625 1855.3599853515625 1847.9219970703125 1840.6839599609375 1838.4849853515625 1836.237060546875 1833.3289794921875 1831.72998046875 1827.531982421875 1825.134033203125 1825.06494140625 1840.8370361328125 1850.4189453125 1867.469970703125 1887.6820068359375 1903.573974609375 1914.35498046875 1927.7869873046875 1940.529052734375 1953.0699462890625 1964.342041015625 1974.8740234375 1984.4449462890625 1992.8370361328125 1999.1390380859375 2001.4200439453125 1993.251953125 1981.4339599609375 1965.68505859375 1954.7569580078125 1933.8990478515625 1914.73095703125 1888.2020263671875 1870.2340087890625 1853.3360595703125 1838.0670166015625 1815.6190185546875 1799.010986328125 1780.1519775390625 1758.823974609375 1748.7960205078125 1736.406982421875 1758.958984375 1775.1409912109375 1799.001953125 1824.0140380859375 1856.5760498046875 1876.5880126953125 1898.8699951171875 1916.2120361328125
-9999 -9999 -9999 -9999 -9999 -9999 -9999 -9999 -9999 -9999 -9999 -9999 -9999 -9999 -9999 -9999 -9999 -9999 -9999 -9999 -9999 -9999 -9999 -9999 -9999 -9999 -9999 -9999 -9999 -9999 -9999 -9999 -9999 -9999 -9999 -9999 -9999 -9999 -9999 -9999 -9999 -9999 -9999 -9999 -9999 -9999 -9999 -9999 -9999 -9999 -9999 -9999 -9999 -9999 -9999 -9999 -9999 -9999 -9999 -9999 -9999 -9999 -9999 -9999 -9999 -9999 -9999 -9999 -9999 -9999 -9999 -9999 -9999 -9999 -9999 -9999 -9999 -9999 -9999 -9999 -9999 -9999 -9999 -9999 -9999 -9999 -9999 -9999 -9999 -9999 -9999 -9999 -9999 -9999 -9999 -9999 -9999 -9999 -9999 -9999 -9999 -9999 2251.260986328125 2243.2919921875 2242.322998046875 2235.052978515625 2231.1240234375 2218.925048828125 2198.916015625 2187.556884765625 2175.66796875 2163.87890625 2153.18994140625 2144.64111328125 2134.56103515625 2125.27197265625 2120.492919921875 2113.464111328125 2104.52490234375 2094.68603515625 2084.507080078125 2073.488037109375 2061.468994140625 2047.68896484375 2039.800048828125 2029.6610107421875 2019.27197265625 2014.06298828125 2002.593994140625 1994.1949462890625 1985.3160400390625 1976.845947265625 1969.197021484375 1961.3780517578125 1962.22900390625 1953.75 1948.9310302734375 1943.08203125 1937.623046875 1933.1240234375 1931.2939453125 1930.2950439453125 1928.615966796875 1926.366943359375 1919.0579833984375 1910.7889404296875 1901.739990234375 1896.4310302734375 1888.9019775390625 1880.592041015625 1872.6629638671875 1868.60400390625 1867.18505859375 1863.39599609375 1856.737060546875 1849.218017578125 1841.529052734375 1830.208984375 1817.6400146484375 1799.3409423828125 1782.2220458984375 1767.593017578125 1744.7440185546875 1731.3349609375 1726.5260009765625 1721.637939453125 1711.47998046875 1701.571044921875 1693.2430419921875 1678.5350341796875 1663.0460205078125 1647.427978515625 1630.010009765625 1639.3909912109375 1648.31298828125 1667.5250244140625 1690.2860107421875 1713.5479736328125 1733.8499755859375 1755.0909423828125 1773.363037109375 1792.1650390625 1807.2359619140625 1822.218017578125 1838.6600341796875 1855.551025390625 1876.363037109375 1892.425048828125 1902.7359619140625 1915.3280029296875 1928.280029296875 1941.81103515625 1945.2030029296875 1943.9749755859375 1939.0360107421875 1929.748046875 1920.5899658203125 1911.1409912109375 1902.873046875 1893.574951171875 1881.946044921875 1868.498046875 1858.780029296875 1848.77099609375 1839.322998046875 1833.60498046875 1829.0059814453125 1826.968017578125 1823.72998046875 1819.4410400390625 1818.633056640625 1815.9549560546875 1817.7659912109375 1833.6280517578125 1847.3599853515625 1865.9110107421875 1881.762939453125 1896.655029296875 1907.8759765625 1917.8179931640625 1931.050048828125 1940.1209716796875 1953.7030029296875 1967.0350341796875 1977.5159912109375 1986.8280029296875 1994.06005859375 1994.1009521484375 1987.4530029296875 1966.85498046875 1950.385986328125 1941.3380126953125 1924.3399658203125 1901.9110107421875 1880.27294921875 1859.125 1841.4759521484375 1829.68798828125 1811.2099609375 1786.8909912109375 1765.762939453125 1746.625 1733.365966796875 1728.5780029296875 1750.31005859375 1764.6910400390625 1790.81298828125 1818.18505859375 1854.3270263671875 1875.5789794921875 1894.1510009765625 1904.0830078125
-9999 -9999 -9999 -9999 -9999 -9999 -9999 -9999 -9999 -9999 -9999 -9999 -9999 -9999 -9999 -9999 -9999 -9999 -9999 -9999 -9999 -9999 -9999 -9999 -9999 -9999 -9999 -9999 -9999 -9999 -9999 -9999 -9999 -9999 -9999 -9999 -9999 -9999 -9999 -9999 -9999 -9999 -9999 -9999 -9999 -9999 -9999 -9999 -9999 -9999 -9999 -9999 -9999 -9999 -9999 -9999 -9999 -9999 -9999 -9999 -9999 -9999 -9999 -9999 -9999 -9999 -9999 -9999 -9999 -9999 -9999 -9999 -9999 -9999 -9999 -9999 -9999 -9999 -9999 -9999 -9999 -9999 -9999 -9999 -9999 -9999 -9999 -9999 -9999 -9999 -9999 -9999 -9999 -9999 -9999 -9999 -9999 -9999 -9999 -9999 -9999 -9999 2246.721923828125 2241.512939453125 2241.962890625 2235.674072265625 2230.735107421875 2215.166015625 2195.987060546875 2182.867919921875 2175.01904296875 2160.8701171875 2149.051025390625 2138.490966796875 2129.342041015625 2119.873046875 2112.864013671875 2105.72509765625 2100.555908203125 2094.136962890625 2082.64794921875 2072.4990234375 2063.4990234375 2051.949951171875 2038.9510498046875 2029.81201171875 2021.4930419921875 2012.073974609375 2006.655029296875 2001.2359619140625 1992.615966796875 1982.376953125 1971.1280517578125 1958.0789794921875 1948.4599609375 1950.720947265625 1943.4119873046875 1936.572998046875 1932.083984375 1925.9639892578125 1921.0849609375 1920.6259765625 1919.886962890625 1919.2080078125 1916.198974609375 1910.27001953125 1901.52099609375 1895.2020263671875 1889.2020263671875 1877.0030517578125 1868.10400390625 1865.5050048828125 1863.635986328125 1857.64697265625 1850.998046875 1843.0389404296875 1834.68896484375 1827.0699462890625 1817.8409423828125 1797.8919677734375 1776.012939453125 1762.7440185546875 1743.7049560546875 1728.7860107421875 1722.406982421875 1718.6490478515625 1710.219970703125 1702.4320068359375 1692.2139892578125 1681.5849609375 1663.0970458984375 1651.529052734375 1628.5899658203125 1626.2919921875 1644.0140380859375 1679.614990234375 1705.427001953125 1721.3089599609375 1735.9100341796875 1749.302001953125 1768.083984375 1784.2149658203125 1799.14697265625 1815.0689697265625 1831.8399658203125 1850.781982421875 1869.593994140625 1883.175048828125 1894.656982421875 1908.3890380859375 1922.989990234375 1931.0419921875 1933.823974609375 1933.1259765625 1928.197021484375 1922.759033203125 1916.3310546875 1908.751953125 1898.7440185546875 1888.2259521484375 1873.737060546875 1861.9990234375 1851.5009765625 1841.10205078125 1831.833984375 1829.5860595703125 1823.636962890625 1818.8590087890625 1813.6810302734375 1812.06201171875 1809.2239990234375 1805.7659912109375 1815.406982421875 1827.0989990234375 1844.7110595703125 1860.9720458984375 1876.7939453125 1889.916015625 1902.97705078125 1910.2889404296875 1919.801025390625 1930.281982421875 1947.2239990234375 1961.1259765625 1970.217041015625 1980.958984375 1986.7110595703125 1987.4820556640625 1981.64404296875 1964.2159423828125 1946.39697265625 1925.208984375 1905.531005859375 1886.6619873046875 1867.6839599609375 1849.4859619140625 1830.136962890625 1810.97900390625 1797.781005859375 1779.052001953125 1757.9940185546875 1734.4959716796875 1716.156982421875 1717.468994140625 1732.77099609375 1755.2320556640625 1783.0439453125 1811.7459716796875 1839.8680419921875 1859.550048828125 1876.9320068359375 1887.823974609375
-9999 -9999 -9999 -9999 -9999 -9999 -9999 -9999 -9999 -9999 -9999 -9999 -9999 -9999 -9999 -9999 -9999 -9999 -9999 -9999 -9999 -9999 -9999 -9999 -9999 -9999 -9999 -9999 -9999 -9999 -9999 -9999 -9999 -9999 -9999 -9999 -9999 -9999 -9999 -9999 -9999 -9999 -9999 -9999 -9999 -9999 -9999 -9999 -9999 -9999 -9999 -9999 -9999 -9999 -9999 -9999 -9999 -9999 -9999 -9999 -9999 -9999 -9999 -9999 -9999 -9999 -9999 -9999 -9999 -9999 -9999 -9999 -9999 -9999 -9999 -9999 -9999 -9999 -9999 -9999 -9999 -9999 -9999 -9999 -9999 -9999 -9999 -9999 -9999 -9999 -9999 -9999 -9999 -9999 -9999 -9999 -9999 -9999 -9999 -9999 -9999 -9999 2247.212890625 2240.39404296875 2239.56396484375 2233.9951171875 2226.345947265625 2212.237060546875 2196.64794921875 2185.529052734375 2171.10009765625 2158.9609375 2147.3310546875 2136.3720703125 2124.262939453125 2119.22412109375 2111.93505859375 2101.51611328125 2093.306884765625 2085.318115234375 2076.658935546875 2066.0791015625 2058.97998046875 2051.680908203125 2042.261962890625 2031.27294921875 2021.1240234375 2012.7249755859375 2004.6259765625 1998.7960205078125 1994.5269775390625 1984.407958984375 1970.8690185546875 1960.1700439453125 1950.4110107421875 1937.001953125 1937.762939453125 1930.7740478515625 1920.85400390625 1917.5350341796875 1913.2860107421875 1911.43701171875 1912.0980224609375 1911.509033203125 1910.300048828125 1907.1810302734375 1901.751953125 1895.802001953125 1888.9129638671875 1875.4639892578125 1867.885009765625 1862.666015625 1859.5369873046875 1853.0880126953125 1844.6689453125 1836.0589599609375 1828.030029296875 1821.3709716796875 1813.06201171875 1802.10302734375 1779.39404296875 1758.635009765625 1740.4659423828125 1727.7960205078125 1718.91796875 1713.6400146484375 1705.5810546875 1696.9530029296875 1689.125 1677.865966796875 1666.72802734375 1653.4599609375 1630.98095703125 1615.56298828125 1636.844970703125 1669.8060302734375 1688.66796875 1710.81005859375 1726.9510498046875 1743.02294921875 1760.675048828125 1775.8160400390625 1792.16796875 1810.06005859375 1826.6810302734375 1845.56298828125 1862.2049560546875 1876.9859619140625 1887.0179443359375 1900.02001953125 1914.541015625 1920.1729736328125 1923.2149658203125 1924.5460205078125 1921.0679931640625 1917.530029296875 1911.81103515625 1901.343017578125 1891.9649658203125 1879.2659912109375 1867.468017578125 1855.780029296875 1846.6109619140625 1829.8929443359375 1821.5350341796875 1821.2359619140625 1816.907958984375 1810.52001953125 1803.551025390625 1799.7230224609375 1801.64501953125 1802.9560546875 1814.5679931640625 1822.1099853515625 1837.531005859375 1854.9530029296875 1870.39501953125 1882.0059814453125 1889.157958984375 1902.1099853515625 1913.551025390625 1925.0830078125 1940.39501953125 1951.97705078125 1963.9580078125 1973.8399658203125 1979.3819580078125 1981.133056640625 1978.60498046875 1964.7469482421875 1948.3280029296875 1929.199951171875 1906.822021484375 1885.4730224609375 1863.2850341796875 1841.3470458984375 1821.5780029296875 1804.3599853515625 1786.531982421875 1765.6629638671875 1747.4449462890625 1723.8070068359375 1703.258056640625 1706.510009765625 1728.31201171875 1755.1429443359375 1777.5550537109375 1800.8470458984375 1826.928955078125 1844.571044921875 1860.04296875 1876.405029296875
-9999 -9999 -9999 -9999 -9999 -9999 -9999 -9999 -9999 -9999 -9999 -9999 -9999 -9999 -9999 -9999 -9999 -9999 -9999 -9999 -9999 -9999 -9999 -9999 -9999 -9999 -9999 -9999 -9999 -9999 -9999 -9999 -9999 -9999 -9999 -9999 -9999 -9999 -9999 -9999 -9999 -9999 -9999 -9999 -9999 -9999 -9999 -9999 -9999 -9999 -9999 -9999 -9999 -9999 -9999 -9999 -9999 -9999 -9999 -9999 -9999 -9999 -9999 -9999 -9999 -9999 -9999 -9999 -9999 -9999 -9999 -9999 -9999 -9999 -9999 -9999 -9999 -9999 -9999 -9999 -9999 -9999 -9999 -9999 -9999 -9999 -9999 -9999 -9999 -9999 -9999 -9999 -9999 -9999 -9999 -9999 -9999 -9999 -9999 -9999 -9999 -9999 2247.593994140625 2237.75390625 2234.925048828125 2232.39599609375 2224.677001953125 2213.677978515625 2198.989013671875 2184.219970703125 2168.7509765625 2157.451904296875 2148.251953125 2135.093017578125 2122.25390625 2117.06494140625 2109.02587890625 2096.826904296875 2087.637939453125 2076.989013671875 2068.62890625 2059.570068359375 2051.85107421875 2046.2220458984375 2040.1629638671875 2031.404052734375 2022.405029296875 2014.35595703125 2006.126953125 1998.22705078125 1990.5279541015625 1980.9990234375 1973.5799560546875 1965.5009765625 1957.4620361328125 1947.762939453125 1926.343994140625 1914.593994140625 1905.5450439453125 1901.8759765625 1897.9969482421875 1898.137939453125 1902.458984375 1903.3599853515625 1902.56103515625 1902.2110595703125 1899.302001953125 1895.4029541015625 1889.14404296875 1875.31494140625 1865.4659423828125 1858.886962890625 1856.137939453125 1849.8690185546875 1841.0489501953125 1832.010009765625 1820.8310546875 1813.7020263671875 1806.6829833984375 1797.5240478515625 1784.5550537109375 1762.426025390625 1744.0059814453125 1729.126953125 1717.009033203125 1706.52001953125 1698.1319580078125 1691.1939697265625 1684.175048828125 1673.737060546875 1662.4090576171875 1650.3199462890625 1630.3819580078125 1608.583984375 1625.4449462890625 1650.616943359375 1671.2889404296875 1694.23095703125 1716.781982421875 1737.053955078125 1753.9859619140625 1769.72705078125 1787.678955078125 1805.1910400390625 1822.281982421875 1839.2540283203125 1858.3260498046875 1871.3370361328125 1880.7989501953125 1891.8809814453125 1904.322021484375 1910.10400390625 1913.2960205078125 1914.5069580078125 1911.7889404296875 1907.6510009765625 1902.0419921875 1894.06396484375 1884.7659912109375 1872.68701171875 1863.0989990234375 1852.3809814453125 1838.60205078125 1822.7939453125 1814.0159912109375 1811.3170166015625 1804.7889404296875 1800.6009521484375 1795.3719482421875 1790.654052734375 1790.89599609375 1801.947021484375 1810.178955078125 1817.970947265625 1834.4219970703125 1850.134033203125 1864.0159912109375 1874.737060546875 1885.8189697265625 1897.0810546875 1907.02197265625 1922.9439697265625 1936.2459716796875 1947.5069580078125 1957.3189697265625 1965.791015625 1970.7320556640625 1973.093994140625 1966.68603515625 1952.7469482421875 1929.509033203125 1914.6910400390625 1900.08203125 1882.7139892578125 1862.9759521484375 1843.93701171875 1825.779052734375 1807.1009521484375 1788.012939453125 1766.5439453125 1742.5760498046875 1715.258056640625 1689.8590087890625 1697.1910400390625 1723.2430419921875 1745.4339599609375 1769.135986328125 1790.5179443359375 1815.43994140625 1836.4620361328125 1855.2340087890625 1870.2060546875
-9999 -9999 -9999 -9999 -9999 -9999 -9999 -9999 -9999 -9999 -9999 -9999 -9999 -9999 -9999 -9999 -9999 -9999 -9999 -9999 -9999 -9999 -9999 -9999 -9999 -9999 -9999 -9999 -9999 -9999 -9999 -9999 -9999 -9999 -9999 -9999 -9999 -9999 -9999 -9999 -9999 -9999 -9999 -9999 -9999 -9999 -9999 -9999 -9999 -9999 -9999 -9999 -9999 -9999 -9999 -9999 -9999 -9999 -9999 -9999 -9999 -9999 -9999 -9999 -9999 -9999 -9999 -9999 -9999 -9999 -9999 -9999 -9999 -9999 -9999 -9999 -9999 -9999 -9999 -9999 -9999 -9999 -9999 -9999 -9999 -9999 -9999 -9999 -9999 -9999 -9999 -9999 -9999 -9999 -9999 -9999 -9999 -9999 -9999 -9999 -9999 -9999 2248.714111328125 2239.31494140625 2228.99609375 2227.787109375 2224.657958984375 2215.5390625 2199.68994140625 2184.14111328125 2165.08203125 2154.092041015625 2145.98291015625 2136.9140625 2122.205078125 2113.176025390625 2105.386962890625 2091.407958984375 2077.76904296875 2069.569091796875 2064.080078125 2055.930908203125 2049.052001953125 2041.9429931640625 2034.0439453125 2027.4949951171875 2021.2060546875 2014.197021484375 2005.0069580078125 1996.887939453125 1988.01904296875 1982.2099609375 1976.0009765625 1969.6519775390625 1961.322998046875 1953.5040283203125 1940.4940185546875 1926.2550048828125 1904.635986328125 1888.427001953125 1881.137939453125 1879.6090087890625 1886.9200439453125 1889.8809814453125 1891.3609619140625 1890.58203125 1891.77294921875 1890.56396484375 1887.2249755859375 1873.7760009765625 1866.9169921875 1855.7979736328125 1851.6689453125 1845.259033203125 1836.8599853515625 1828.0909423828125 1816.4019775390625 1807.02294921875 1797.7440185546875 1789.6949462890625 1779.68603515625 1768.2760009765625 1743.116943359375 1724.3179931640625 1714.1600341796875 1699.3709716796875 1690.363037109375 1684.3050537109375 1679.93603515625 1674.2080078125 1658.739990234375 1638.791015625 1619.593017578125 1601.18505859375 1640.916015625 1671.3280029296875 1688.68994140625 1703.760986328125 1719.1629638671875 1734.3050537109375 1751.2559814453125 1769.43798828125 1788.3399658203125 1805.281005859375 1819.822998046875 1833.5849609375 1846.9560546875 1861.1280517578125 1874.06005859375 1884.6209716796875 1896.123046875 1900.7650146484375 1902.89599609375 1902.498046875 1897.050048828125 1892.821044921875 1890.633056640625 1885.2850341796875 1877.5460205078125 1868.887939453125 1856.47998046875 1847.291015625 1836.52294921875 1819.8349609375 1807.5269775390625 1797.64794921875 1790.4200439453125 1789.1820068359375 1785.863037109375 1780.0550537109375 1783.45703125 1791.248046875 1801.800048828125 1815.08203125 1835.0830078125 1849.4949951171875 1860.39697265625 1871.2779541015625 1883.0899658203125 1894.501953125 1907.012939453125 1921.385009765625 1933.0870361328125 1943.998046875 1952.56005859375 1959.4119873046875 1962.8330078125 1963.4449462890625 1950.427001953125 1933.8480224609375 1914.3800048828125 1895.56201171875 1878.9129638671875 1867.1949462890625 1852.177001953125 1836.16796875 1825.93994140625 1808.7220458984375 1790.06298828125 1768.4150390625 1736.39697265625 1704.008056640625 1674.8199462890625 1687.741943359375 1713.5030517578125 1740.10498046875 1765.5169677734375 1786.8079833984375 1812.8310546875 1829.383056640625 1846.0350341796875 1862.1669921875
-9999 -9999 -9999 -9999 -9999 -9999 -9999 -9999 -9999 -9999 -9999 -9999 -9999 -9999 -9999 -9999 -9999 -9999 -9999 -9999 -9999 -9999 -9999 -9999 -9999 -9999 -9999 -9999 -9999 -9999 -9999 -9999 -9999 -9999 -9999 -9999 -9999 -9999 -9999 -9999 -9999 -9999 -9999 -9999 -9999 -9999 -9999 -9999 -9999 -9999 -9999 -9999 -9999 -9999 -9999 -9999 -9999 -9999 -9999 -9999 -9999 -9999 -9999 -9999 -9999 -9999 -9999 -9999 -9999 -9999 -9999 -9999 -9999 -9999 -9999 -9999 -9999 -9999 -9999 -9999 -9999 -9999 -9999 -9999 -9999 -9999 -9999 -9999 -9999 -9999 -9999 -9999 -9999 -9999 -9999 -9999 -9999 -9999 -9999 -9999 -9999 2250.155029296875 2251.35498046875 2241.666015625 2226.306884765625 2224.51806640625 2221.408935546875 2215.010009765625 2201.02099609375 2182.632080078125 2165.592041015625 2151.623046875 2143.8740234375 2134.885009765625 2122.696044921875 2110.47705078125 2100.677978515625 2087.718994140625 2074.97900390625 2066.93994140625 2059.37109375 2050.951904296875 2043.9730224609375 2038.2440185546875 2031.385009765625 2022.656005859375 2014.967041015625 2008.0269775390625 2000.748046875 1993.76904296875 1986.97998046875 1979.31103515625 1973.8819580078125 1970.012939453125 1964.2840576171875 1951.64404296875 1942.56494140625 1929.8160400390625 1914.8270263671875 1897.3480224609375 1880.9189453125 1867.9200439453125 1870.52099609375 1875.9110107421875 1878.362060546875 1878.60302734375 1879.1939697265625 1879.4549560546875 1878.7060546875 1871.217041015625 1860.8280029296875 1852.448974609375 1847.3990478515625 1840.5 1832.5810546875 1824.011962890625 1812.383056640625 1801.7039794921875 1796.2349853515625 1787.0360107421875 1774.176025390625 1760.376953125 1743.5579833984375 1722.1090087890625 1710.98095703125 1700.7220458984375 1683.89404296875 1678.3050537109375 1674.116943359375 1671.8990478515625 1657.6710205078125 1633.4219970703125 1611.56396484375 1594.676025390625 1630.3070068359375 1663.009033203125 1677.27099609375 1697.9620361328125 1712.384033203125 1728.2659912109375 1745.2769775390625 1765.029052734375 1783.551025390625 1800.4320068359375 1813.593994140625 1823.4659423828125 1834.95703125 1848.4990234375 1861.6209716796875 1874.7020263671875 1884.1739501953125 1890.68603515625 1892.5169677734375 1891.7490234375 1885.0810546875 1881.58203125 1877.573974609375 1872.8360595703125 1866.70703125 1858.678955078125 1845.6810302734375 1834.81201171875 1823.9239501953125 1813.0360107421875 1799.876953125 1788.739013671875 1780.6409912109375 1773.1519775390625 1772.7540283203125 1768.0360107421875 1776.406982421875 1783.6090087890625 1796.1910400390625 1812.02197265625 1833.4739990234375 1849.2060546875 1861.5169677734375 1870.3289794921875 1882.821044921875 1892.2330322265625 1906.9739990234375 1920.426025390625 1928.5279541015625 1937.8389892578125 1945.27099609375 1950.81298828125 1954.9639892578125 1954.7259521484375 1941.137939453125 1928.8189697265625 1908.02099609375 1884.31298828125 1867.7440185546875 1852.166015625 1844.758056640625 1824.1390380859375 1811.73095703125 1800.0030517578125 1776.81396484375 1752.5159912109375 1724.248046875 1697.678955078125 1666.98095703125 1677.29296875 1707.864013671875 1739.635986328125 1761.7879638671875 1779.4990234375 1804.9119873046875 1819.9139404296875 1832.7760009765625 1847.8580322265625
-9999 -9999 -9999 -9999 -9999 -9999 -9999 -9999 -9999 -9999 -9999 -9999 -9999 -9999 -9999 -9999 -9999 -9999 -9999 -9999 -9999 -9999 -9999 -9999 -9999 -9999 -9999 -9999 -9999 -9999 -9999 -9999 -9999 -9999 -9999 -9999 -9999 -9999 -9999 -9999 -9999 -9999 -9999 -9999 -9999 -9999 -9999 -9999 -9999 -9999 -9999 -9999 -9999 -9999 -9999 -9999 -9999 -9999 -9999 -9999 -9999 -9999 -9999 -9999 -9999 -9999 -9999 -9999 -9999 -9999 -9999 -9999 -9999 -9999 -9999 -9999 -9999 -9999 -9999 -9999 -9999 -9999 -9999 -9999 -9999 -9999 -9999 -9999 -9999 -9999 -9999 -9999 -9999 -9999 -9999 -9999 -9999 -9999 -9999 -9999 -9999 2248.1650390625 2252.0458984375 2245.306884765625 2225.64794921875 2220.089111328125 2217.919921875 2214.200927734375 2200.112060546875 2180.612060546875 2164.383056640625 2148.904052734375 2140.735107421875 2131.22607421875 2117.376953125 2108.43798828125 2101.089111328125 2086.330078125 2073.02001953125 2064.0009765625 2057.0419921875 2049.302978515625 2040.384033203125 2032.60498046875 2025.85595703125 2019.0469970703125 2009.64697265625 2004.177978515625 2000.529052734375 1993.7099609375 1985.0009765625 1976.58203125 1972.4630126953125 1971.56396484375 1967.1939697265625 1955.2950439453125 1944.0159912109375 1929.7469482421875 1916.1180419921875 1899.26904296875 1885.0799560546875 1869.27099609375 1855.781005859375 1857.112060546875 1866.4930419921875 1868.073974609375 1866.5250244140625 1863.385986328125 1863.0169677734375 1859.3480224609375 1855.6390380859375 1848.43896484375 1839.1600341796875 1834.8709716796875 1827.4720458984375 1819.1529541015625 1807.364013671875 1793.885009765625 1789.416015625 1780.446044921875 1771.0970458984375 1757.738037109375 1742.428955078125 1723.81005859375 1709.281005859375 1700.9229736328125 1682.114990234375 1672.406005859375 1669.258056640625 1666.760009765625 1657.8409423828125 1642.302978515625 1617.864990234375 1588.447021484375 1611.0880126953125 1635.5 1664.1309814453125 1688.7530517578125 1704.5050048828125 1721.2659912109375 1738.508056640625 1756.449951171875 1775.1209716796875 1791.322998046875 1803.35498046875 1815.4759521484375 1826.8079833984375 1836.739990234375 1847.6209716796875 1859.7430419921875 1869.2349853515625 1878.95703125 1881.738037109375 1880.4100341796875 1874.8719482421875 1869.79296875 1863.324951171875 1859.20703125 1853.657958984375 1841.3699951171875 1827.802001953125 1822.123046875 1813.7449951171875 1806.43701171875 1794.387939453125 1780.1199951171875 1770.4620361328125 1764.54296875 1761.4949951171875 1759.93701171875 1768.8179931640625 1777.1300048828125 1791.281982421875 1808.7130126953125 1830.5350341796875 1847.3270263671875 1861.16796875 1871.81005859375 1880.9420166015625 1894.373046875 1904.1949462890625 1915.906982421875 1926.657958984375 1934.969970703125 1939.511962890625 1944.032958984375 1945.614990234375 1943.626953125 1931.43798828125 1917.1099853515625 1904.4720458984375 1885.7139892578125 1866.2249755859375 1844.876953125 1817.2490234375 1802.6300048828125 1789.3819580078125 1781.303955078125 1760.7449951171875 1741.7669677734375 1710.509033203125 1684.18994140625 1650.58203125 1658.5340576171875 1689.864990234375 1719.5770263671875 1747.3289794921875 1770.219970703125 1792.552978515625 1804.7550048828125 1818.467041015625 1833.708984375
-9999 -9999 -9999 -9999 -9999 -9999 -9999 -9999 -9999 -9999 -9999 -9999 -9999 -9999 -9999 -9999 -9999 -9999 -9999 -9999 -9999 -9999 -9999 -9999 -9999 -9999 -9999 -9999 -9999 -9999 -9999 -9999 -9999 -9999 -9999 -9999 -9999 -9999 -9999 -9999 -9999 -9999 -9999 -9999 -9999 -9999 -9999 -9999 -9999 -9999 -9999 -9999 -9999 -9999 -9999 -9999 -9999 -9999 -9999 -9999 -9999 -9999 -9999 -9999 -9999 -9999 -9999 -9999 -9999 -9999 -9999 -9999 -9999 -9999 -9999 -9999 -9999 -9999 -9999 -9999 -9999 -9999 -9999 -9999 -9999 -9999 -9999 -9999 -9999 -9999 -9999 -9999 -9999 -9999 -9999 -9999 -9999 -9999 -9999 -9999 -9999 2249.166015625 2247.1669921875 2246.197998046875 2226.118896484375 2219.969970703125 2215.94091796875 2213.382080078125 2198.843017578125 2179.923095703125 2162.8740234375 2147.9951171875 2137.77587890625 2127.537109375 2116.587890625 2110.319091796875 2097.56005859375 2082.580078125 2069.470947265625 2060.721923828125 2052.943115234375 2044.5439453125 2035.1650390625 2028.2060546875 2020.8470458984375 2011.366943359375 2004.6280517578125 1999.5689697265625 1995.699951171875 1991.73095703125 1987.02197265625 1978.1429443359375 1974.4940185546875 1970.553955078125 1966.31494140625 1955.64599609375 1944.197021484375 1929.718017578125 1917.0989990234375 1902.0999755859375 1886.551025390625 1873.781005859375 1857.6319580078125 1846.2330322265625 1852.4739990234375 1856.18505859375 1855.7860107421875 1850.987060546875 1848.7080078125 1846.01904296875 1845.3289794921875 1837.56005859375 1833.4310302734375 1825.6619873046875 1821.7530517578125 1814.803955078125 1802.2750244140625 1788.0560302734375 1784.906005859375 1776.9169921875 1764.8079833984375 1753.239013671875 1740.8199462890625 1723.490966796875 1709.6219482421875 1699.2840576171875 1685.8759765625 1671.5369873046875 1663.7490234375 1651.73095703125 1643.511962890625 1632.404052734375 1614.18603515625 1588.447021484375 1594.4189453125 1641.7509765625 1662.6920166015625 1679.4639892578125 1696.18603515625 1713.47705078125 1729.9189453125 1745.031005859375 1763.072021484375 1779.4840087890625 1793.5159912109375 1804.987060546875 1816.2989501953125 1825.740966796875 1832.6719970703125 1845.10400390625 1857.946044921875 1866.7569580078125 1870.708984375 1869.3909912109375 1863.31201171875 1856.2740478515625 1849.9659423828125 1845.487060546875 1842.43896484375 1825.5810546875 1820.9520263671875 1815.64404296875 1808.656005859375 1799.0670166015625 1785.5889892578125 1771.490966796875 1759.4329833984375 1755.7239990234375 1751.9759521484375 1752.39794921875 1759.928955078125 1774.27099609375 1793.4930419921875 1813.114013671875 1833.3360595703125 1850.14794921875 1861.5489501953125 1871.3909912109375 1880.7030029296875 1893.2540283203125 1904.5460205078125 1914.89794921875 1924.1290283203125 1930.531005859375 1934.4429931640625 1936.6939697265625 1938.14599609375 1936.0679931640625 1924.7490234375 1909.321044921875 1891.79296875 1875.5040283203125 1856.2860107421875 1834.3079833984375 1811.5489501953125 1790.27099609375 1770.623046875 1756.7239990234375 1750.696044921875 1724.5679931640625 1695.43994140625 1669.6209716796875 1644.093017578125 1643.4150390625 1668.7159423828125 1693.3580322265625 1727.02001953125 1746.031005859375 1770.7440185546875 1787.60498046875 1803.5469970703125 1816.1300048828125
-9999 -9999 -9999 -9999 -9999 -9999 -9999 -9999 -9999 -9999 -9999 -9999 -9999 -9999 -9999 -9999 -9999 -9999 -9999 -9999 -9999 -9999 -9999 -9999 -9999 -9999 -9999 -9999 -9999 -9999 -9999 -9999 -9999 -9999 -9999 -9999 -9999 -9999 -9999 -9999 -9999 -9999 -9999 -9999 -9999 -9999 -9999 -9999 -9999 -9999 -9999 -9999 -9999 -9999 -9999 -9999 -9999 -9999 -9999 -9999 -9999 -9999 -9999 -9999 -9999 -9999 -9999 -9999 -9999 -9999 -9999 -9999 -9999 -9999 -9999 -9999 -9999 -9999 -9999 -9999 -9999 -9999 -9999 -9999 -9999 -9999 -9999 -9999 -9999 -9999 -9999 -9999 -9999 -9999 -9999 -9999 -9999 -9999 -9999 -9999 -9999 -9999 2245.10791015625 2245.1689453125 2225.320068359375 2219.31103515625 2216.7119140625 2212.363037109375 2196.35302734375 2177.27392578125 2159.735107421875 2147.7060546875 2137.237060546875 2127.697998046875 2119.799072265625 2108.260009765625 2096.080078125 2083.131103515625 2071.52197265625 2059.952880859375 2051.43408203125 2042.9649658203125 2032.7359619140625 2023.5770263671875 2014.217041015625 2006.488037109375 1999.239013671875 1993.530029296875 1990.9310302734375 1987.531982421875 1985.572998046875 1979.06396484375 1974.4639892578125 1968.7249755859375 1963.18603515625 1950.6669921875 1939.718017578125 1927.5489501953125 1913.47998046875 1899.031005859375 1887.470947265625 1873.1719970703125 1863.54296875 1850.9139404296875 1834.8050537109375 1841.0560302734375 1842.8170166015625 1840.97802734375 1838.3289794921875 1832.4990234375 1833.300048828125 1831.260986328125 1824.1920166015625 1816.012939453125 1809.9940185546875 1803.3349609375 1796.14599609375 1786.666015625 1782.68701171875 1775.0980224609375 1761.448974609375 1750.1700439453125 1735.1109619140625 1725.842041015625 1711.3330078125 1692.31494140625 1680.0059814453125 1667.5279541015625 1659.6500244140625 1642.291015625 1624.10302734375 1615.2950439453125 1597.5760498046875 1577.4580078125 1588.6300048828125 1630.6610107421875 1651.7130126953125 1667.9449462890625 1686.5460205078125 1704.177978515625 1718.719970703125 1735.1109619140625 1750.6529541015625 1766.4649658203125 1783.366943359375 1795.7979736328125 1808.0799560546875 1815.822021484375 1822.262939453125 1829.175048828125 1841.5670166015625 1854.39794921875 1858.06005859375 1858.7120361328125 1853.2230224609375 1843.2149658203125 1837.0069580078125 1834.93798828125 1828.510009765625 1816.35205078125 1813.613037109375 1808.074951171875 1800.656982421875 1781.68798828125 1771.8699951171875 1760.4720458984375 1745.81298828125 1739.7950439453125 1733.927001953125 1746.387939453125 1753.239990234375 1767.001953125 1792.7330322265625 1813.0050048828125 1831.0670166015625 1846.3179931640625 1859.1300048828125 1870.81201171875 1880.833984375 1891.125 1900.89697265625 1911.72900390625 1920.739990234375 1926.06201171875 1929.9339599609375 1930.425048828125 1932.0469970703125 1929.2889404296875 1919.5799560546875 1904.4420166015625 1885.9840087890625 1866.3349609375 1844.906982421875 1826.68896484375 1810.1300048828125 1791.842041015625 1773.4539794921875 1753.405029296875 1726.2769775390625 1705.1090087890625 1683.1700439453125 1659.781982421875 1635.823974609375 1624.2850341796875 1653.22705078125 1688.6689453125 1708.739990234375 1721.8719482421875 1756.2249755859375 1773.2459716796875 1785.947998046875 1796.43994140625
-9999 -9999 -9999 -9999 -9999 -9999 -9999 -9999 -9999 -9999 -9999 -9999 -9999 -9999 -9999 -9999 -9999 -9999 -9999 -9999 -9999 -9999 -9999 -9999 -9999 -9999 -9999 -9999 -9999 -9999 -9999 -9999 -9999 -9999 -9999 -9999 -9999 -9999 -9999 -9999 -9999 -9999 -9999 -9999 -9999 -9999 -9999 -9999 -9999 -9999 -9999 -9999 -9999 -9999 -9999 -9999 -9999 -9999 -9999 -9999 -9999 -9999 -9999 -9999 -9999 -9999 -9999 -9999 -9999 -9999 -9999 -9999 -9999 -9999 -9999 -9999 -9999 -9999 -9999 -9999 -9999 -9999 -9999 -9999 -9999 -9999 -9999 -9999 -9999 -9999 -9999 -9999 -9999 -9999 -9999 -9999 -9999 -9999 -9999 -9999 -9999 -9999 -9999 2240.139892578125 2223.200927734375 2219.241943359375 2215.782958984375 2206.5830078125 2191.7939453125 2175.425048828125 2161.7060546875 2146.967041015625 2136.55810546875 2125.618896484375 2119.030029296875 2106.47998046875 2097.02099609375 2086.52197265625 2073.54296875 2064.114013671875 2054.205078125 2044.0460205078125 2032.68701171875 2022.47705078125 2013.3079833984375 2003.4090576171875 1996.969970703125 1989.4310302734375 1984.322021484375 1983.572998046875 1980.6739501953125 1976.7740478515625 1969.7249755859375 1964.8060302734375 1958.97705078125 1947.238037109375 1935.93896484375 1928.0799560546875 1915.3909912109375 1903.56201171875 1892.4520263671875 1881.60302734375 1870.0439453125 1858.7650146484375 1841.3260498046875 1823.126953125 1828.3380126953125 1825.8089599609375 1822.1190185546875 1818.6500244140625 1818.27099609375 1819.1519775390625 1816.113037109375 1808.4639892578125 1799.425048828125 1789.2960205078125 1783.3260498046875 1778.5469970703125 1779.718017578125 1771.928955078125 1758.3699951171875 1744.4210205078125 1726.261962890625 1705.863037109375 1692.864013671875 1679.166015625 1668.447021484375 1656.3790283203125 1643.9610595703125 1634.612060546875 1622.073974609375 1604.9859619140625 1585.866943359375 1570.5889892578125 1579.3609619140625 1613.7919921875 1632.5340576171875 1653.676025390625 1676.2569580078125 1693.0689697265625 1708.6309814453125 1721.9620361328125 1737.303955078125 1753.3060302734375 1770.89697265625 1784.6590576171875 1794.73095703125 1802.072021484375 1808.0040283203125 1816.7860107421875 1825.5970458984375 1841.6490478515625 1848.6409912109375 1848.092041015625 1843.823974609375 1833.345947265625 1828.9169921875 1820.5389404296875 1814.6409912109375 1804.4530029296875 1804.1739501953125 1795.3160400390625 1786.9580078125 1768.3890380859375 1756.5909423828125 1743.27294921875 1734.81396484375 1728.1259765625 1724.3380126953125 1736.989013671875 1745.071044921875 1760.572998046875 1787.9739990234375 1806.2060546875 1827.0179443359375 1841.958984375 1853.990966796875 1865.0030517578125 1875.89404296875 1886.85595703125 1897.947998046875 1908.2490234375 1914.9010009765625 1921.9730224609375 1925.7340087890625 1928.0360107421875 1926.5679931640625 1921.5799560546875 1913.3409423828125 1898.873046875 1880.4649658203125 1859.9859619140625 1838.238037109375 1815.510009765625 1794.1610107421875 1777.262939453125 1762.9749755859375 1744.2259521484375 1722.258056640625 1703.2099609375 1677.551025390625 1651.2130126953125 1615.0450439453125 1626.85595703125 1649.8780517578125 1673.699951171875 1687.5810546875 1703.863037109375 1729.0050048828125 1745.636962890625 1760.8990478515625 1769.81103515625
-9999 -9999 -9999 -9999 -9999 -9999 -9999 -9999 -9999 -9999 -9999 -9999 -9999 -9999 -9999 -9999 -9999 -9999 -9999 -9999 -9999 -9999 -9999 -9999 -9999 -9999 -9999 -9999 -9999 -9999 -9999 -9999 -9999 -9999 -9999 -9999 -9999 -9999 -9999 -9999 -9999 -9999 -9999 -9999 -9999 -9999 -9999 -9999 -9999 -9999 -9999 -9999 -9999 -9999 -9999 -9999 -9999 -9999 -9999 -9999 -9999 -9999 -9999 -9999 -9999 -9999 -9999 -9999 -9999 -9999 -9999 -9999 -9999 -9999 -9999 -9999 -9999 -9999 -9999 -9999 -9999 -9999 -9999 -9999 -9999 -9999 -9999 -9999 -9999 -9999 -9999 -9999 -9999 -9999 -9999 -9999 -9999 -9999 -9999 -9999 -9999 -9999 -9999 2236.071044921875 2222.7119140625 2216.782958984375 2212.48291015625 2201.6240234375 2184.945068359375 2174.156005859375 2161.737060546875 2147.657958984375 2137.09912109375 2128.31005859375 2117.219970703125 2107.410888671875 2099.802001953125 2087.73291015625 2077.493896484375 2068.2548828125 2056.406005859375 2046.7669677734375 2037.72802734375 2023.97802734375 2013.178955078125 2004.1400146484375 1997.990966796875 1987.241943359375 1981.6429443359375 1971.64404296875 1972.074951171875 1968.4449462890625 1959.406005859375 1954.4169921875 1949.22802734375 1940.3690185546875 1930.949951171875 1927.6810302734375 1920.572021484375 1907.1519775390625 1893.8330078125 1882.5340576171875 1870.60498046875 1861.0660400390625 1844.2669677734375 1822.5880126953125 1815.2989501953125 1807.5989990234375 1802.68994140625 1803.291015625 1803.2020263671875 1801.373046875 1802.093994140625 1798.114990234375 1790.4759521484375 1780.416015625 1771.406982421875 1768.3280029296875 1768.509033203125 1762.06005859375 1746.220947265625 1725.491943359375 1706.52294921875 1692.9429931640625 1682.655029296875 1670.0159912109375 1654.7679443359375 1645.3599853515625 1633.720947265625 1619.2030029296875 1606.89501953125 1595.196044921875 1577.7879638671875 1558.77001953125 1574.291015625 1605.373046875 1634.7249755859375 1649.5560302734375 1665.5780029296875 1681.31005859375 1696.1619873046875 1710.6829833984375 1723.7349853515625 1738.47705078125 1755.2679443359375 1769.6600341796875 1779.4520263671875 1789.56298828125 1796.1650390625 1799.89697265625 1811.1180419921875 1824.3699951171875 1836.5419921875 1838.4029541015625 1834.875 1823.7969970703125 1822.0679931640625 1810.0899658203125 1799.9420166015625 1793.4730224609375 1791.364990234375 1782.3070068359375 1772.407958984375 1756.81005859375 1742.60205078125 1731.9630126953125 1723.614990234375 1714.2669677734375 1715.259033203125 1728.9300537109375 1737.1319580078125 1750.4539794921875 1774.93505859375 1796.927001953125 1817.0789794921875 1829.1600341796875 1841.6619873046875 1853.9139404296875 1869.4949951171875 1881.7569580078125 1892.1390380859375 1902.9000244140625 1911.6820068359375 1919.634033203125 1922.7550048828125 1922.5970458984375 1918.509033203125 1908.469970703125 1899.6719970703125 1885.904052734375 1866.2750244140625 1845.5169677734375 1828.3189697265625 1809.0699462890625 1790.4119873046875 1767.904052734375 1744.8160400390625 1729.8470458984375 1716.428955078125 1694.1610107421875 1661.9620361328125 1633.31396484375 1593.0660400390625 1615.9169921875 1637.22900390625 1658.02099609375 1670.9019775390625 1690.2540283203125 1704.5260009765625 1721.0479736328125 1736.7900390625 1747.572021484375
-9999 -9999 -9999 -9999 -9999 -9999 -9999 -9999 -9999 -9999 -9999 -9999 -9999 -9999 -9999 -9999 -9999 -9999 -9999 -9999 -9999 -9999 -9999 -9999 -9999 -9999 -9999 -9999 -9999 -9999 -9999 -9999 -9999 -9999 -9999 -9999 -9999 -9999 -9999 -9999 -9999 -9999 -9999 -9999 -9999 -9999 -9999 -9999 -9999 -9999 -9999 -9999 -9999 -9999 -9999 -9999 -9999 -9999 -9999 -9999 -9999 -9999 -9999 -9999 -9999 -9999 -9999 -9999 -9999 -9999 -9999 -9999 -9999 -9999 -9999 -9999 -9999 -9999 -9999 -9999 -9999 -9999 -9999 -9999 -9999 -9999 -9999 -9999 -9999 -9999 -9999 -9999 -9999 -9999 -9999 -9999 -9999 -9999 -9999 -9999 -9999 -9999 -9999 2228.7919921875 2216.992919921875 2209.114013671875 2204.833984375 2197.81494140625 2184.18603515625 2174.447021484375 2164.6279296875 2150.698974609375 2137.330078125 2129.4609375 2118.4609375 2109.491943359375 2100.883056640625 2091.10400390625 2080.925048828125 2069.166015625 2059.366943359375 2046.97802734375 2034.0579833984375 2025.779052734375 2016.6099853515625 2007.6810302734375 1995.501953125 1984.383056640625 1978.5340576171875 1966.625 1951.155029296875 1955.135986328125 1944.0570068359375 1934.238037109375 1932.3189697265625 1927.8299560546875 1919.9110107421875 1918.822021484375 1914.1920166015625 1905.7330322265625 1892.10400390625 1881.074951171875 1871.5159912109375 1862.18701171875 1849.7979736328125 1830.6090087890625 1815.458984375 1798.989990234375 1780.9610595703125 1779.052001953125 1788.4630126953125 1787.7939453125 1785.905029296875 1783.9560546875 1781.5260009765625 1775.0469970703125 1768.968017578125 1758.97900390625 1752.699951171875 1748.3509521484375 1739.4820556640625 1719.83203125 1700.613037109375 1688.2139892578125 1674.426025390625 1664.217041015625 1643.1590576171875 1628.4410400390625 1624.4219970703125 1608.333984375 1598.7259521484375 1584.7569580078125 1567.509033203125 1548.990966796875 1568.3719482421875 1607.2239990234375 1629.5660400390625 1644.0970458984375 1653.1090087890625 1665.6910400390625 1683.6719970703125 1696.9539794921875 1708.446044921875 1724.2569580078125 1739.6090087890625 1754.23095703125 1762.6820068359375 1768.4639892578125 1781.135986328125 1790.4969482421875 1798.279052734375 1811.77099609375 1828.4229736328125 1829.06396484375 1825.35595703125 1817.447998046875 1810.708984375 1799.4410400390625 1790.383056640625 1781.1639404296875 1772.8759765625 1764.39794921875 1755.72900390625 1746.1109619140625 1729.802978515625 1718.4539794921875 1713.2960205078125 1702.6080322265625 1707.8790283203125 1721.220947265625 1728.9730224609375 1740.2640380859375 1762.2860107421875 1782.93798828125 1797.678955078125 1812.4610595703125 1827.6629638671875 1844.155029296875 1860.9560546875 1874.697998046875 1887.02001953125 1898.0909423828125 1905.7230224609375 1914.2249755859375 1919.3060302734375 1917.3580322265625 1908.530029296875 1894.5909423828125 1880.6429443359375 1868.5050048828125 1848.2159423828125 1831.258056640625 1813.47998046875 1799.7509765625 1782.113037109375 1758.635009765625 1733.656005859375 1710.8480224609375 1689.68994140625 1670.9610595703125 1649.343017578125 1616.81494140625 1585.39697265625 1587.498046875 1609.9200439453125 1634.4420166015625 1660.532958984375 1673.3050537109375 1690.8570556640625 1706.6290283203125 1716.510986328125 1728.4229736328125
-9999 -9999 -9999 -9999 -9999 -9999 -9999 -9999 -9999 -9999 -9999 -9999 -9999 -9999 -9999 -9999 -9999 -9999 -9999 -9999 -9999 -9999 -9999 -9999 -9999 -9999 -9999 -9999 -9999 -9999 -9999 -9999 -9999 -9999 -9999 -9999 -9999 -9999 -9999 -9999 -9999 -9999 -9999 -9999 -9999 -9999 -9999 -9999 -9999 -9999 -9999 -9999 -9999 -9999 -9999 -9999 -9999 -9999 -9999 -9999 -9999 -9999 -9999 -9999 -9999 -9999 -9999 -9999 -9999 -9999 -9999 -9999 -9999 -9999 -9999 -9999 -9999 -9999 -9999 -9999 -9999 -9999 -9999 -9999 -9999 -9999 -9999 -9999 -9999 -9999 -9999 -9999 -9999 -9999 -9999 -9999 -9999 -9999 -9999 -9999 -9999 -9999 -9999 2222.943115234375 2213.073974609375 2203.283935546875 2197.56494140625 2192.216064453125 2182.027099609375 2172.447998046875 2161.658935546875 2149.280029296875 2139.551025390625 2128.39111328125 2119.81201171875 2110.873046875 2103.384033203125 2092.655029296875 2081.39599609375 2072.1669921875 2060.16796875 2047.498046875 2033.259033203125 2023.72998046875 2011.9410400390625 2004.4019775390625 1991.2330322265625 1977.5439453125 1967.4749755859375 1956.135009765625 1941.0360107421875 1930.93701171875 1924.998046875 1918.4990234375 1916.010009765625 1915.3609619140625 1909.751953125 1903.9219970703125 1902.843017578125 1896.6739501953125 1889.114990234375 1881.3260498046875 1873.8270263671875 1865.137939453125 1851.678955078125 1836.6490478515625 1820.510009765625 1804.4310302734375 1780.362060546875 1759.762939453125 1762.904052734375 1766.4649658203125 1767.345947265625 1766.9560546875 1761.4969482421875 1762.5579833984375 1755.97900390625 1750.7900390625 1743.0909423828125 1733.10205078125 1724.1319580078125 1706.9129638671875 1690.0439453125 1677.2149658203125 1663.2459716796875 1647.0679931640625 1629.010009765625 1614.3809814453125 1604.52294921875 1602.3349609375 1585.14599609375 1572.3280029296875 1557.760009765625 1546.112060546875 1576.9630126953125 1603.875 1624.636962890625 1634.498046875 1636.27001953125 1641.1419677734375 1663.4930419921875 1681.135009765625 1693.677001953125 1710.238037109375 1724.6300048828125 1735.9520263671875 1747.512939453125 1762.93505859375 1770.5169677734375 1782.157958984375 1791.8299560546875 1799.751953125 1818.85302734375 1820.8050537109375 1817.1070556640625 1810.137939453125 1802.6099853515625 1794.862060546875 1785.3330078125 1776.7249755859375 1764.2569580078125 1751.739013671875 1739.3499755859375 1733.9420166015625 1720.1639404296875 1711.824951171875 1700.0169677734375 1690.029052734375 1706.1199951171875 1712.8919677734375 1719.14404296875 1732.2850341796875 1749.93701171875 1769.0989990234375 1783.6700439453125 1797.112060546875 1813.85400390625 1833.864990234375 1849.0269775390625 1865.3590087890625 1879.8299560546875 1890.862060546875 1898.7540283203125 1906.7449951171875 1913.0670166015625 1908.7989501953125 1897.1810302734375 1882.9119873046875 1865.803955078125 1851.1259765625 1837.39697265625 1817.428955078125 1799.8909912109375 1782.781982421875 1765.7440185546875 1747.3360595703125 1729.5069580078125 1707.5689697265625 1685.9410400390625 1663.092041015625 1631.9739990234375 1607.946044921875 1582.3070068359375 1572.8990478515625 1593.8509521484375 1632.4219970703125 1643.2340087890625 1653.10595703125 1673.64794921875 1683.81005859375 1700.862060546875 1709.1739501953125
-9999 -9999 -9999 -9999 -9999 -9999 -9999 -9999 -9999 -9999 -9999 -9999 -9999 -9999 -9999 -9999 -9999 -9999 -9999 -9999 -9999 -9999 -9999 -9999 -9999 -9999 -9999 -9999 -9999 -9999 -9999 -9999 -9999 -9999 -9999 -9999 -9999 -9999 -9999 -9999 -9999 -9999 -9999 -9999 -9999 -9999 -9999 -9999 -9999 -9999 -9999 -9999 -9999 -9999 -9999 -9999 -9999 -9999 -9999 -9999 -9999 -9999 -9999 -9999 -9999 -9999 -9999 -9999 -9999 -9999 -9999 -9999 -9999 -9999 -9999 -9999 -9999 -9999 -9999 -9999 -9999 -9999 -9999 -9999 -9999 -9999 -9999 -9999 -9999 -9999 -9999 -9999 -9999 -9999 -9999 -9999 -9999 -9999 -9999 -9999 -9999 -9999 -9999 -9999 2217.31396484375 2198.905029296875 2190.426025390625 2188.487060546875 2180.548095703125 2170.218994140625 2157.8701171875 2146.131103515625 2141.321044921875 2130.94189453125 2121.68310546875 2113.283935546875 2104.715087890625 2092.43603515625 2083.217041015625 2073.818115234375 2062.01806640625 2047.0589599609375 2032.0999755859375 2017.220947265625 2005.3819580078125 1992.2530517578125 1986.89404296875 1971.06494140625 1952.905029296875 1938.6259765625 1929.7669677734375 1913.927978515625 1904.3189697265625 1903.3199462890625 1902.541015625 1900.7120361328125 1898.1719970703125 1893.9830322265625 1889.85400390625 1884.2349853515625 1879.5059814453125 1876.89697265625 1873.89794921875 1867.198974609375 1850.93896484375 1836.5999755859375 1821.1710205078125 1806.60205078125 1789.60302734375 1769.053955078125 1742.89501953125 1741.926025390625 1741.2359619140625 1742.4969482421875 1736.387939453125 1742.3089599609375 1739.4200439453125 1736.1610107421875 1732.6719970703125 1729.10205078125 1714.10302734375 1700.083984375 1681.0450439453125 1663.385986328125 1653.0770263671875 1641.2889404296875 1623.5810546875 1607.531982421875 1592.833984375 1585.7060546875 1578.8170166015625 1561.8690185546875 1546.27099609375 1546.112060546875 1575.4739990234375 1597.5760498046875 1610.217041015625 1613.4189453125 1617.81103515625 1624.06201171875 1639.4940185546875 1660.7459716796875 1678.72705078125 1698.0989990234375 1711.760986328125 1723.512939453125 1734.6240234375 1752.9759521484375 1761.248046875 1777.739013671875 1783.6409912109375 1790.113037109375 1809.9639892578125 1813.2860107421875 1807.5279541015625 1802.76904296875 1793.9110107421875 1785.343017578125 1777.9239501953125 1767.916015625 1756.93798828125 1745.1290283203125 1735.1409912109375 1729.4429931640625 1716.6739501953125 1702.9759521484375 1689.16796875 1680.5789794921875 1699.9310302734375 1704.383056640625 1710.614990234375 1724.18603515625 1741.0479736328125 1757.219970703125 1770.821044921875 1786.072998046875 1801.824951171875 1820.7960205078125 1837.8280029296875 1853.1099853515625 1866.240966796875 1878.3929443359375 1887.574951171875 1895.7159423828125 1901.9580078125 1901.3299560546875 1888.1910400390625 1870.4930419921875 1855.7650146484375 1838.4959716796875 1825.157958984375 1807.81005859375 1783.1820068359375 1761.2530517578125 1744.2750244140625 1730.866943359375 1714.758056640625 1697.31005859375 1675.1619873046875 1649.9029541015625 1622.7750244140625 1598.68701171875 1575.258056640625 1563.2099609375 1581.6820068359375 1603.123046875 1621.385009765625 1637.447021484375 1655.3489990234375 1663.9610595703125 1673.4930419921875 1687.0550537109375
-9999 -9999 -9999 -9999 -9999 -9999 -9999 -9999 -9999 -9999 -9999 -9999 -9999 -9999 -9999 -9999 -9999 -9999 -9999 -9999 -9999 -9999 -9999 -9999 -9999 -9999 -9999 -9999 -9999 -9999 -9999 -9999 -9999 -9999 -9999 -9999 -9999 -9999 -9999 -9999 -9999 -9999 -9999 -9999 -9999 -9999 -9999 -9999 -9999 -9999 -9999 -9999 -9999 -9999 -9999 -9999 -9999 -9999 -9999 -9999 -9999 -9999 -9999 -9999 -9999 -9999 -9999 -9999 -9999 -9999 -9999 -9999 -9999 -9999 -9999 -9999 -9999 -9999 -9999 -9999 -9999 -9999 -9999 -9999 -9999 -9999 -9999 -9999 -9999 -9999 -9999 -9999 -9999 -9999 -9999 -9999 -9999 -9999 -9999 -9999 -9999 -9999 -9999 -9999 2213.4150390625 2203.5859375 2186.4169921875 2185.26806640625 2177.319091796875 2165.860107421875 2152.531005859375 2146.31201171875 2142.23193359375 2135.843017578125 2124.9140625 2114.875 2106.156005859375 2093.467041015625 2084.587890625 2073.887939453125 2060.9189453125 2045.2099609375 2031.5909423828125 2017.991943359375 2002.06298828125 1982.553955078125 1970.14501953125 1957.844970703125 1946.5460205078125 1932.0069580078125 1916.657958984375 1906.4090576171875 1893.6400146484375 1890.4610595703125 1888.3919677734375 1886.6820068359375 1882.8330078125 1881.6240234375 1877.7249755859375 1874.0159912109375 1870.43701171875 1871.5679931640625 1865.01904296875 1857.7490234375 1850.18994140625 1835.490966796875 1817.592041015625 1809.04296875 1791.384033203125 1774.875 1751.0760498046875 1728.5260009765625 1722.72705078125 1718.93798828125 1717.3790283203125 1719.68994140625 1724.291015625 1725.1920166015625 1723.9520263671875 1719.032958984375 1709.81396484375 1694.344970703125 1677.595947265625 1656.2769775390625 1650.758056640625 1640.1700439453125 1622.4510498046875 1604.79296875 1588.4549560546875 1572.0760498046875 1565.5880126953125 1551.2900390625 1532.06201171875 1536.1529541015625 1564.7750244140625 1581.406982421875 1588.0880126953125 1597.06005859375 1608.991943359375 1623.072998046875 1637.2149658203125 1652.737060546875 1665.8179931640625 1685.7900390625 1702.0419921875 1712.363037109375 1723.0849609375 1742.20703125 1757.2779541015625 1769.6300048828125 1778.7919921875 1784.8929443359375 1802.0350341796875 1806.9169921875 1801.197998046875 1794.699951171875 1784.9119873046875 1776.9139404296875 1768.0250244140625 1761.2569580078125 1751.9090576171875 1740.3599853515625 1723.6719970703125 1718.2139892578125 1709.14501953125 1697.5970458984375 1682.1590576171875 1671.280029296875 1688.9520263671875 1696.85400390625 1705.7750244140625 1716.967041015625 1732.68896484375 1747.8199462890625 1760.83203125 1775.9439697265625 1793.135986328125 1809.947021484375 1826.4090576171875 1841.051025390625 1854.3919677734375 1867.56396484375 1878.0660400390625 1886.866943359375 1890.1490478515625 1890.27099609375 1881.302001953125 1869.2740478515625 1849.906005859375 1829.9969482421875 1807.678955078125 1787.6710205078125 1770.0419921875 1750.4139404296875 1731.5760498046875 1716.386962890625 1700.8990478515625 1688.81103515625 1667.363037109375 1644.9639892578125 1624.5059814453125 1595.1280517578125 1567.029052734375 1552.6209716796875 1575.9630126953125 1588.8740234375 1605.5260009765625 1628.2679443359375 1636.1099853515625 1646.2220458984375 1657.7640380859375 1671.2259521484375
-9999 -9999 -9999 -9999 -9999 -9999 -9999 -9999 -9999 -9999 -9999 -9999 -9999 -9999 -9999 -9999 -9999 -9999 -9999 -9999 -9999 -9999 -9999 -9999 -9999 -9999 -9999 -9999 -9999 -9999 -9999 -9999 -9999 -9999 -9999 -9999 -9999 -9999 -9999 -9999 -9999 -9999 -9999 -9999 -9999 -9999 -9999 -9999 -9999 -9999 -9999 -9999 -9999 -9999 -9999 -9999 -9999 -9999 -9999 -9999 -9999 -9999 -9999 -9999 -9999 -9999 -9999 -9999 -9999 -9999 -9999 -9999 -9999 -9999 -9999 -9999 -9999 -9999 -9999 -9999 -9999 -9999 -9999 -9999 -9999 -9999 -9999 -9999 -9999 -9999 -9999 -9999 -9999 -9999 -9999 -9999 -9999 -9999 -9999 -9999 -9999 -9999 -9999 -9999 2210.966064453125 2205.20703125 2188.35791015625 2184.948974609375 2178.22998046875 2166.160888671875 2154.382080078125 2145.501953125 2142.18310546875 2138.533935546875 2128.614990234375 2117.446044921875 2106.39697265625 2095.087890625 2085.029052734375 2072.049072265625 2056.840087890625 2040.490966796875 2024.4119873046875 2009.60302734375 1994.884033203125 1981.14501953125 1964.655029296875 1948.4659423828125 1932.487060546875 1919.2979736328125 1907.1689453125 1895.510009765625 1884.8509521484375 1879.531982421875 1875.9520263671875 1873.282958984375 1866.553955078125 1864.844970703125 1867.3060302734375 1867.9169921875 1862.68798828125 1859.72900390625 1852.1590576171875 1848.4300537109375 1841.510986328125 1831.7220458984375 1820.9530029296875 1806.553955078125 1790.9749755859375 1773.615966796875 1757.0460205078125 1734.5469970703125 1715.0880126953125 1703.72900390625 1702.5 1703.1810302734375 1706.072021484375 1709.281982421875 1712.6829833984375 1709.9539794921875 1700.7950439453125 1692.39599609375 1673.987060546875 1654.637939453125 1644.3590087890625 1632.3909912109375 1622.7020263671875 1606.39404296875 1585.0260009765625 1570.656982421875 1548.76904296875 1543.490966796875 1522.0419921875 1527.843994140625 1545.926025390625 1563.677001953125 1572.8289794921875 1585.9010009765625 1602.10205078125 1620.7440185546875 1637.9759521484375 1651.45703125 1661.1290283203125 1677.9310302734375 1697.383056640625 1706.8740234375 1716.8360595703125 1731.637939453125 1745.8389892578125 1758.5909423828125 1771.9530029296875 1779.6240234375 1793.8160400390625 1801.258056640625 1795.8289794921875 1788.23095703125 1781.04296875 1771.7939453125 1761.345947265625 1750.5579833984375 1742.5689697265625 1731.8709716796875 1720.633056640625 1696.344970703125 1700.5860595703125 1687.22802734375 1673.5400390625 1664.06103515625 1682.4429931640625 1688.7650146484375 1700.89599609375 1715.677978515625 1728.1800537109375 1739.3709716796875 1753.31298828125 1769.2449951171875 1784.2259521484375 1797.177978515625 1811.8399658203125 1823.4410400390625 1837.3929443359375 1849.2950439453125 1860.97705078125 1871.3179931640625 1878.2099609375 1879.3719482421875 1861.7330322265625 1851.9150390625 1839.20703125 1818.8380126953125 1798.6500244140625 1783.06201171875 1764.9029541015625 1743.5050048828125 1721.697021484375 1700.7879638671875 1685.2900390625 1673.9320068359375 1660.31298828125 1635.35498046875 1614.0670166015625 1581.2989501953125 1556.56005859375 1549.1419677734375 1563.9139404296875 1570.1650390625 1590.6669921875 1605.5789794921875 1617.760986328125 1628.512939453125 1643.5050048828125 1656.93701171875
-9999 -9999 -9999 -9999 -9999 -9999 -9999 -9999 -9999 -9999 -9999 -9999 -9999 -9999 -9999 -9999 -9999 -9999 -9999 -9999 -9999 -9999 -9999 -9999 -9999 -9999 -9999 -9999 -9999 -9999 -9999 -9999 -9999 -9999 -9999 -9999 -9999 -9999 -9999 -9999 -9999 -9999 -9999 -9999 -9999 -9999 -9999 -9999 -9999 -9999 -9999 -9999 -9999 -9999 -9999 -9999 -9999 -9999 -9999 -9999 -9999 -9999 -9999 -9999 -9999 -9999 -9999 -9999 -9999 -9999 -9999 -9999 -9999 -9999 -9999 -9999 -9999 -9999 -9999 -9999 -9999 -9999 -9999 -9999 -9999 -9999 -9999 -9999 -9999 -9999 -9999 -9999 -9999 -9999 -9999 -9999 -9999 -9999 -9999 -9999 -9999 -9999 -9999 -9999 2206.826904296875 2203.738037109375 2190.93896484375 2182.35009765625 2176.52099609375 2167.592041015625 2155.362060546875 2144.992919921875 2142.614013671875 2138.655029296875 2129.81591796875 2119.95703125 2108.157958984375 2095.97900390625 2085.868896484375 2073 2055.5810546875 2040.7220458984375 2025.032958984375 2008.654052734375 1990.7750244140625 1978.2259521484375 1962.135986328125 1942.68701171875 1927.8380126953125 1913.5689697265625 1900.6600341796875 1887.06103515625 1881.052001953125 1873.511962890625 1867.02294921875 1861.4539794921875 1853.7750244140625 1851.176025390625 1848.95703125 1853.677978515625 1856.198974609375 1843.6590576171875 1835.3599853515625 1834.4310302734375 1828.8919677734375 1822.4830322265625 1815.4639892578125 1803.385009765625 1788.7659912109375 1768.666015625 1756.427001953125 1736.407958984375 1720.0889892578125 1706.5999755859375 1687.77099609375 1688.342041015625 1691.3719482421875 1693.81298828125 1698.2039794921875 1701.324951171875 1695.7459716796875 1682.8070068359375 1676.0279541015625 1655.8489990234375 1637.8399658203125 1625.2509765625 1613.373046875 1598.094970703125 1582.0560302734375 1567.5379638671875 1552.1099853515625 1528.4420166015625 1511.072998046875 1526.9849853515625 1541.39697265625 1556.91796875 1572.4599609375 1581.8819580078125 1597.613037109375 1621.35498046875 1627.3170166015625 1642.508056640625 1658.8900146484375 1677.4219970703125 1689.8929443359375 1696.4949951171875 1710.386962890625 1720.47802734375 1733.5699462890625 1745.2320556640625 1758.35400390625 1772.0150146484375 1787.89697265625 1795.468994140625 1792.3199462890625 1784.9620361328125 1778.4139404296875 1767.574951171875 1754.177001953125 1741.93896484375 1735.449951171875 1722.1619873046875 1709.8740234375 1685.3050537109375 1680.677001953125 1674.3690185546875 1658.9200439453125 1659.072021484375 1671.4539794921875 1685.7750244140625 1698.8170166015625 1710.3189697265625 1723.9610595703125 1734.7020263671875 1748.573974609375 1763.4959716796875 1774.72705078125 1784.8089599609375 1796.4210205078125 1808.052001953125 1818.1739501953125 1832.0660400390625 1843.6070556640625 1853.6190185546875 1860.071044921875 1861.9420166015625 1848.0439453125 1831.595947265625 1820.998046875 1805.6290283203125 1788.551025390625 1773.2130126953125 1760.2740478515625 1745.656005859375 1722.8380126953125 1700.198974609375 1679.0810546875 1656.7030029296875 1640.81396484375 1630.3260498046875 1611.2679443359375 1574.0489501953125 1547.510986328125 1539.9730224609375 1551.81396484375 1558.406005859375 1572.637939453125 1590.3399658203125 1601.6820068359375 1614.593994140625 1630.946044921875 1651.0179443359375
