ncols        192
nrows        29
xllcorner    628522
yllcorner    5132428
cellsize     30.000000000000
NODATA_value  -9999
-9999 -9999 -9999 -9999 -9999 -9999 -9999 -9999 -9999 -9999 -9999 -9999 2128.4619140625 2119.10302734375 2108.4130859375 2101.93408203125 2095.77490234375 2086.615966796875 2078.18603515625 2065.177001953125 2048.89794921875 2032.5589599609375 2016.5589599609375 1996.9300537109375 1977.301025390625 1960.9010009765625 1946.9320068359375 1929.27294921875 1911.083984375 1899.4239501953125 1887.0050048828125 1869.4759521484375 1849.366943359375 1827.7569580078125 1807.9580078125 1801.8890380859375 1788.76904296875 1776.5699462890625 1774.0909423828125 1765.6719970703125 1758.1319580078125 1742.552978515625 1725.1939697265625 1715.7149658203125 1707.925048828125 1691.5760498046875 1677.947021484375 1664.1070556640625 1649.2779541015625 1632.428955078125 1611.5400390625 1597.47998046875 1580.1409912109375 1558.06201171875 1534.9520263671875 1510.863037109375 1508.343994140625 1498.0050048828125 1472.4849853515625 1445.9859619140625 1426.14697265625 1416.8480224609375 1400.5880126953125 1381.718994140625 1364.47998046875 1342.18994140625 1334.801025390625 1322.9320068359375 1302.4730224609375 1280.282958984375 1251.4639892578125 1224.2550048828125 1208.405029296875 1196.115966796875 1185.5069580078125 1177.5279541015625 1170.718994140625 1163.041015625 1156.8929443359375 1149.0350341796875 1138.97705078125 1133.4090576171875 1129.6500244140625 1120.572021484375 1113.634033203125 1112.4859619140625 1115.406982421875 1117.8189697265625 1121.3909912109375 1121.2330322265625 1121.094970703125 1125.14697265625 1134.0889892578125 1138.760986328125 1141.032958984375 1145.675048828125 1152.677001953125 1163.4189453125 1177.821044921875 1194.052978515625 1212.2149658203125 1230.89697265625 1249.3690185546875 1275.9210205078125 1291.1629638671875 1309.6739501953125 1324.2860107421875 1337.387939453125 1346.010009765625 1360.35205078125 1378.7440185546875 1384.0159912109375 1378.8079833984375 1371.300048828125 1376.4119873046875 1397.7540283203125 1410.615966796875 1425.97802734375 1447.3299560546875 1476.2919921875 1492.9139404296875 1511.2459716796875 1524.72802734375 1516.8599853515625 1511.322021484375 1508.2239990234375 1499.8260498046875 1490.8270263671875 1485.3790283203125 1497.260986328125 1507.2430419921875 1523.9449462890625 1543.5469970703125 1557.208984375 1580.6710205078125 1603.7130126953125 1612.89501953125 1632.3170166015625 1649.9090576171875 1673.2110595703125 1699.9530029296875 1721.9949951171875 1736.45703125 1755.708984375 1762.23095703125 1778.8929443359375 1794.35498046875 1801.5970458984375 1809.0889892578125 1809.0889892578125 1822.6209716796875 1835.8929443359375 1843.2049560546875 1852.197021484375 1858.6689453125 1870.1099853515625 1885.8919677734375 1900.4840087890625 1911.1259765625 1925.3079833984375 1932.81005859375 1944.802001953125 1959.073974609375 1977.926025390625 1998.6070556640625 2014.5469970703125 2030.89794921875 2049.198974609375 2054.219970703125 2064.81103515625 2076.721923828125 2088.383056640625 2095.7041015625 2103.695068359375 2127.14599609375 2153.43603515625 2155.9169921875 2155.76611328125 2160.5390625 2164.320068359375 2176.1708984375 2200.382080078125 2223.302978515625 2247.053955078125 2247.714111328125 2261.97509765625 2273.1259765625 -9999 -9999 -9999 -9999 -9999
-9999 -9999 -9999 -9999 -9999 -9999 -9999 -9999 -9999 -9999 -9999 -9999 2127.423095703125 2122.14306640625 2117.4541015625 2110.155029296875 2103.64501953125 2096.166015625 2085.027099609375 2071.72802734375 2056.867919921875 2038.208984375 2020.6199951171875 2003.9100341796875 1988.4610595703125 1971.56201171875 1955.572998046875 1939.1429443359375 1923.7640380859375 1909.125 1896.4859619140625 1880.9859619140625 1858.6669921875 1834.1280517578125 1831.2080078125 1814.97900390625 1799.8399658203125 1791.031005859375 1782.8509521484375 1770.4720458984375 1757.29296875 1747.782958984375 1735.553955078125 1725.9949951171875 1709.9959716796875 1694.9659423828125 1684.2769775390625 1670.5780029296875 1654.458984375 1636.5989990234375 1615.5799560546875 1594.1710205078125 1573.0909423828125 1547.501953125 1530.512939453125 1526.1639404296875 1512.81396484375 1493.324951171875 1466.595947265625 1457.5360107421875 1450.1070556640625 1431.1180419921875 1411.1190185546875 1392.5889892578125 1373.3900146484375 1357.1209716796875 1354.1710205078125 1337.85205078125 1302.9329833984375 1279.5140380859375 1246.4239501953125 1249.655029296875 1215.8759765625 1194.156005859375 1185.0069580078125 1173.3380126953125 1168.1290283203125 1161.52099609375 1156.7130126953125 1148.85498046875 1139.876953125 1133.5889892578125 1130.0699462890625 1122.842041015625 1113.343994140625 1112.4859619140625 1113.1280517578125 1116.4300537109375 1116.7120361328125 1120.0040283203125 1120.635986328125 1123.1080322265625 1131.3900146484375 1137.4119873046875 1140.383056640625 1148.06494140625 1151.6669921875 1159.3289794921875 1172.291015625 1188.4830322265625 1209.9949951171875 1226.93701171875 1246.198974609375 1265.7110595703125 1274.383056640625 1298.635009765625 1315.7969970703125 1326.0689697265625 1338.4410400390625 1353.1429443359375 1363.4849853515625 1364.68701171875 1360.198974609375 1351.4010009765625 1368.9830322265625 1388.574951171875 1409.2669677734375 1430.2889404296875 1454.280029296875 1474.33203125 1491.9339599609375 1506.7960205078125 1504.218017578125 1499.18994140625 1490.58203125 1486.8740234375 1481.7860107421875 1475.91796875 1472.3599853515625 1482.322021484375 1497.4239501953125 1517.60595703125 1537.8280029296875 1556.77001953125 1580.4420166015625 1591.9239501953125 1605.3759765625 1625.008056640625 1645.9200439453125 1671.9119873046875 1696.7939453125 1716.7159423828125 1728.0579833984375 1744.1300048828125 1755.7120361328125 1769.323974609375 1782.3759765625 1795.5980224609375 1805.47900390625 1805.47900390625 1815.541015625 1824.27294921875 1830.844970703125 1838.3270263671875 1850.009033203125 1861.071044921875 1872.52294921875 1885.155029296875 1895.2569580078125 1906.72900390625 1914.6409912109375 1930.6629638671875 1949.9150390625 1966.70703125 1984.39794921875 2005.91796875 2019.4189453125 2031.81005859375 2044.2010498046875 2057.181884765625 2068.68310546875 2076.10400390625 2087.655029296875 2102.385986328125 2122.8359375 2159.737060546875 2160.47802734375 2158.8291015625 2157.639892578125 2162.131103515625 2172.98193359375 2193.68310546875 2226.02392578125 2245.444091796875 2246.4951171875 2255.946044921875 2269.386962890625 -9999 -9999 -9999 -9999 -9999
-9999 -9999 -9999 -9999 -9999 -9999 -9999 -9999 -9999 -9999 -9999 -9999 2124.73291015625 2121.4541015625 2118.764892578125 2113.385009765625 2106.76611328125 2099.8369140625 2090.20703125 2076.35791015625 2062.388916015625 2044.6500244140625 2028.5699462890625 2013.2010498046875 1998.3919677734375 1984.322021484375 1967.85302734375 1948.614013671875 1928.364990234375 1914.93505859375 1898.5260009765625 1879.5770263671875 1859.18701171875 1854.5679931640625 1845.6590576171875 1829.699951171875 1818.1600341796875 1805.27099609375 1794.7919921875 1784.85205078125 1770.6729736328125 1757.803955078125 1744.7550048828125 1727.405029296875 1710.9659423828125 1693.1669921875 1687.39697265625 1675.6280517578125 1651.1090087890625 1629.9599609375 1612.6800537109375 1595.5009765625 1575.322021484375 1559.06201171875 1542.7230224609375 1524.5240478515625 1504.68505859375 1497.844970703125 1490.5059814453125 1485.0269775390625 1465.93701171875 1444.18798828125 1422.93896484375 1400.1099853515625 1382.469970703125 1368.2509765625 1350.781982421875 1325.842041015625 1313.072998046875 1294.5040283203125 1289.375 1263.2349853515625 1227.43603515625 1205.427001953125 1190.656982421875 1177.3580322265625 1166.6390380859375 1159.8809814453125 1155.0830078125 1149.7850341796875 1142.8370361328125 1136.948974609375 1132.260009765625 1123.81201171875 1113.833984375 1112.2259521484375 1111.47705078125 1112.68994140625 1115.302001953125 1116.2939453125 1119.8260498046875 1122.0379638671875 1128.3299560546875 1137.322021484375 1142.093994140625 1149.2760009765625 1152.0579833984375 1158.6600341796875 1169.011962890625 1185.4739990234375 1204.696044921875 1221.8179931640625 1233.4300537109375 1245.31201171875 1260.053955078125 1280.7049560546875 1300.43701171875 1315.9990234375 1329.821044921875 1338.7130126953125 1345.0150146484375 1344.677001953125 1338.989013671875 1353.0009765625 1371.54296875 1390.0849609375 1411.0269775390625 1435.6190185546875 1458.0909423828125 1472.6529541015625 1486.56494140625 1487.7669677734375 1483.968994140625 1478.6910400390625 1470.60302734375 1465.2850341796875 1462.626953125 1460.6689453125 1462.791015625 1471.802978515625 1495.905029296875 1516.3370361328125 1535.1290283203125 1556.3809814453125 1572.863037109375 1586.2149658203125 1595.68701171875 1615.8790283203125 1638.31103515625 1665.2330322265625 1689.3740234375 1709.39599609375 1719.508056640625 1732.780029296875 1745.9520263671875 1763.573974609375 1775.8160400390625 1790.677978515625 1798.8399658203125 1798.8399658203125 1808.241943359375 1814.6739501953125 1822.4759521484375 1832.387939453125 1842.6600341796875 1853.822021484375 1863.583984375 1873.35595703125 1885.0880126953125 1891.8800048828125 1906.2020263671875 1924.2540283203125 1947.64599609375 1968.8280029296875 1981.3280029296875 1995.3089599609375 2004.1800537109375 2018.260986328125 2036.2020263671875 2052.153076171875 2058.073974609375 2071.074951171875 2087.696044921875 2102.537109375 2121.406982421875 2150.1279296875 2159.779052734375 2156.070068359375 2152.322021484375 2157.35205078125 2175.653076171875 2197.073974609375 2223.074951171875 2243.614990234375 2246.216064453125 2246.216064453125 2261.048095703125 -9999 -9999 -9999 -9999 -9999
-9999 -9999 -9999 -9999 -9999 -9999 -9999 -9999 -9999 -9999 -9999 -9999 2122.4140625 2120.23388671875 2117.155029296875 2111.76611328125 2104.716064453125 2099.406982421875 2092.988037109375 2080.8291015625 2068.319091796875 2050.030029296875 2036.301025390625 2019.8909912109375 2004.10205078125 1987.4530029296875 1968.7540283203125 1949.5439453125 1934.9649658203125 1920.93603515625 1904.2459716796875 1890.156982421875 1880.008056640625 1873.8489990234375 1857.5689697265625 1840.81005859375 1828.6710205078125 1820.2110595703125 1807.9720458984375 1794.4630126953125 1779.7640380859375 1765.6839599609375 1748.614990234375 1733.0360107421875 1715.926025390625 1701.14697265625 1691.3680419921875 1677.3590087890625 1661.9189453125 1643.3800048828125 1623.990966796875 1600.551025390625 1580.1219482421875 1557.7430419921875 1538.0439453125 1528.904052734375 1523.9949951171875 1516.3260498046875 1504.7960205078125 1489.0469970703125 1473.5379638671875 1449.3890380859375 1424.0789794921875 1396.9100341796875 1386.02099609375 1374.6309814453125 1364.7919921875 1350.1429443359375 1330.083984375 1310.4439697265625 1292.7049560546875 1269.595947265625 1246.3360595703125 1219.47705078125 1200.1280517578125 1184.468017578125 1171.9000244140625 1162.031982421875 1155.573974609375 1151.176025390625 1144.387939453125 1138.8089599609375 1135.760986328125 1125.7430419921875 1114.4949951171875 1111.47705078125 1111.76904296875 1111.8399658203125 1112.83203125 1114.803955078125 1116.8360595703125 1121.22802734375 1128.5799560546875 1137.1619873046875 1140.85400390625 1145.39599609375 1151.4580078125 1159.7099609375 1169.802001953125 1182.4139404296875 1197.696044921875 1209.0980224609375 1223.7099609375 1243.4620361328125 1263.14404296875 1279.676025390625 1293.16796875 1307.489990234375 1314.2320556640625 1322.134033203125 1325.446044921875 1327.66796875 1335.989990234375 1355.60205078125 1373.7740478515625 1393.2159423828125 1414.407958984375 1436.0999755859375 1454.552001953125 1467.7340087890625 1465.666015625 1464.8780517578125 1462.3399658203125 1457.7320556640625 1453.2039794921875 1449.9649658203125 1446.5169677734375 1443.5689697265625 1453.970947265625 1470.4530029296875 1492.9549560546875 1512.136962890625 1530.2989501953125 1548.301025390625 1565.2230224609375 1574.2249755859375 1588.39697265625 1611.208984375 1630.6409912109375 1654.6929931640625 1682.824951171875 1701.20703125 1711.279052734375 1726.1610107421875 1739.9029541015625 1753.0849609375 1770.3270263671875 1781.01904296875 1789.3409423828125 1789.3409423828125 1798.9930419921875 1807.655029296875 1817.0169677734375 1824.3890380859375 1834.9510498046875 1844.4830322265625 1853.4449462890625 1861.89697265625 1871.198974609375 1886.1810302734375 1904.1429443359375 1925.4949951171875 1942.487060546875 1960.3690185546875 1969.678955078125 1977.22998046875 2002.281005859375 2020.33203125 2035.4930419921875 2043.1939697265625 2058.18505859375 2066.76611328125 2082.467041015625 2117.217041015625 2119.968017578125 2137.908935546875 2156.10009765625 2155.87109375 2152.322021484375 2158.403076171875 2177.634033203125 2195.85498046875 2218.945068359375 2244.76611328125 2248.3369140625 2246.216064453125 2251.958984375 -9999 -9999 -9999 -9999 -9999
-9999 -9999 -9999 -9999 -9999 -9999 -9999 -9999 -9999 -9999 -9999 -9999 2122.993896484375 2121.655029296875 2116.285888671875 2111.676025390625 2105.717041015625 2096.91796875 2091.447998046875 2084.589111328125 2069.719970703125 2054.091064453125 2041.510986328125 2026.35205078125 2006.8330078125 1991.0830078125 1979.2340087890625 1958.925048828125 1942.4560546875 1928.1259765625 1913.93701171875 1906.218017578125 1897.927978515625 1883.8790283203125 1867.9300537109375 1850.77099609375 1838.6409912109375 1826.2220458984375 1814.863037109375 1802.302978515625 1787.9639892578125 1770.89501953125 1758.0150146484375 1737.156005859375 1718.7569580078125 1704.5679931640625 1694.16796875 1686.5689697265625 1661.31005859375 1637.97998046875 1618.98095703125 1598.4720458984375 1575.2030029296875 1567.113037109375 1558.35400390625 1547.7049560546875 1540.93505859375 1527.3759765625 1506.1669921875 1487.9580078125 1469.3380126953125 1446.18896484375 1419.93994140625 1417.969970703125 1402.2509765625 1386.6319580078125 1373.6319580078125 1359.02294921875 1344.4940185546875 1316.2149658203125 1291.43505859375 1271.135986328125 1250.697021484375 1231.64697265625 1208.927978515625 1189.989013671875 1177.1300048828125 1169.4720458984375 1160.553955078125 1153.1259765625 1147.39794921875 1142.1500244140625 1139.6510009765625 1131.113037109375 1120.35498046875 1111.0269775390625 1111.2490234375 1110.4219970703125 1111.572998046875 1113.6650390625 1117.116943359375 1121.0689697265625 1128.02099609375 1134.9630126953125 1138.675048828125 1143.1070556640625 1149.72900390625 1156.9510498046875 1169.31298828125 1180.655029296875 1194.0870361328125 1211.8990478515625 1228.3509521484375 1244.3919677734375 1261.2239990234375 1277.196044921875 1288.447998046875 1292.8599853515625 1300.592041015625 1305.4739990234375 1304.9759521484375 1324.677978515625 1341.8900146484375 1358.83203125 1375.9940185546875 1391.9959716796875 1413.8380126953125 1433.6800537109375 1442.52197265625 1449.4940185546875 1448.416015625 1445.3079833984375 1443.18994140625 1437.511962890625 1436.0439453125 1432.906005859375 1429.8179931640625 1437.449951171875 1449.2020263671875 1468.803955078125 1490.8759765625 1505.5279541015625 1519.1400146484375 1530.6319580078125 1547.9940185546875 1571.60595703125 1588.47802734375 1604.81005859375 1624.4119873046875 1648.583984375 1675.3260498046875 1693.887939453125 1709.02001953125 1723.02197265625 1738.5040283203125 1744.43603515625 1761.43798828125 1771.9100341796875 1781.9219970703125 1781.9219970703125 1792.864013671875 1802.196044921875 1811.718017578125 1820.510009765625 1827.4219970703125 1834.583984375 1841.4659423828125 1850.2879638671875 1864.75 1879.4620361328125 1895.154052734375 1916.64599609375 1933.39794921875 1944.8690185546875 1952.2099609375 1970.551025390625 1992.511962890625 2008.4530029296875 2021.1639404296875 2035.8050537109375 2048.02587890625 2067.97705078125 2076.7880859375 2108.048095703125 2124.529052734375 2134.159912109375 2148.531005859375 2155.48193359375 2148.802978515625 2161.02392578125 2180.625 2199.655029296875 2222.006103515625 2243.95703125 2251.26806640625 2246.216064453125 2246.216064453125 -9999 -9999 -9999 -9999 -9999
-9999 -9999 -9999 -9999 -9999 -9999 -9999 -9999 -9999 -9999 -9999 -9999 2125.344970703125 2124.06494140625 2117.35595703125 2113.8369140625 2109.35791015625 2099.818115234375 2089.5390625 2084.77001953125 2074.320068359375 2053.0810546875 2040.552001953125 2024.4119873046875 2009.2230224609375 2001.2340087890625 1988.675048828125 1965.9849853515625 1951.156005859375 1933.0970458984375 1926.4969482421875 1921.0479736328125 1908.2889404296875 1892.6400146484375 1876.5400390625 1857.9110107421875 1848.362060546875 1837.9520263671875 1822.85302734375 1809.89404296875 1795.654052734375 1780.1650390625 1760.865966796875 1740.677001953125 1721.7469482421875 1711.197998046875 1694.9990234375 1683.678955078125 1662.0899658203125 1640.0810546875 1618.7020263671875 1596.5419921875 1587.8330078125 1582.10400390625 1573.654052734375 1564.6650390625 1551.9759521484375 1531.89599609375 1511.177001953125 1493.407958984375 1473.208984375 1443.2490234375 1435.9599609375 1429.8509521484375 1411.6510009765625 1398.6719970703125 1380.552978515625 1364.1429443359375 1345.343994140625 1321.56494140625 1297.5860595703125 1277.1259765625 1258.5670166015625 1239.0880126953125 1219.697998046875 1197.1490478515625 1185.93994140625 1174.9119873046875 1164.7640380859375 1154.615966796875 1149.7879638671875 1144.489990234375 1140.970947265625 1134.7330322265625 1124.4949951171875 1112.45703125 1111.01904296875 1110.9210205078125 1110.4219970703125 1113.2049560546875 1117.3270263671875 1121.2490234375 1127.490966796875 1131.6429443359375 1136.5450439453125 1140.866943359375 1147.208984375 1154.510986328125 1163.9129638671875 1177.0849609375 1194.95703125 1206.8389892578125 1224.4510498046875 1237.27294921875 1251.094970703125 1266.697021484375 1266.1090087890625 1274.041015625 1284.1429443359375 1289.4749755859375 1299.6669921875 1317.6090087890625 1332.220947265625 1349.0030517578125 1366.1650390625 1387.197021484375 1405.5889892578125 1421.6409912109375 1428.35302734375 1430.7449951171875 1429.0870361328125 1426.5989990234375 1425.23095703125 1418.762939453125 1417.425048828125 1418.2769775390625 1420.0689697265625 1433.301025390625 1446.9530029296875 1459.574951171875 1480.3370361328125 1492.2989501953125 1505.6610107421875 1527.27294921875 1544.6650390625 1563.3070068359375 1579.739013671875 1599.3310546875 1618.8929443359375 1643.3050537109375 1672.64697265625 1687.989013671875 1703.031005859375 1716.29296875 1729.2149658203125 1743.1669921875 1750.468994140625 1767.051025390625 1777.35302734375 1777.35302734375 1786.175048828125 1794.2469482421875 1802.7989501953125 1810.5009765625 1820.072998046875 1823.9849853515625 1833.5069580078125 1845.18896484375 1857.760986328125 1870.35302734375 1884.43505859375 1902.68701171875 1921.958984375 1925.6099853515625 1947.1109619140625 1963.3719482421875 1979.9329833984375 1995.114013671875 2011.094970703125 2026.115966796875 2043.366943359375 2063.028076171875 2078.35791015625 2103.759033203125 2120.8701171875 2129.341064453125 2143.902099609375 2147.962890625 2148.833984375 2157.5849609375 2180.31591796875 2199.926025390625 2225.47705078125 2247.097900390625 2253.958984375 2246.216064453125 2246.216064453125 -9999 -9999 -9999 -9999 -9999
-9999 -9999 -9999 -9999 -9999 -9999 -9999 -9999 -9999 -9999 -9999 -9999 2127.60498046875 2124.466064453125 2120.64697265625 2117.527099609375 2109.337890625 2101.47900390625 2090.779052734375 2082.60009765625 2070.31103515625 2054.23193359375 2037.77197265625 2026.532958984375 2014.6939697265625 2005.0240478515625 1993.364990234375 1979.0660400390625 1958.68603515625 1947.136962890625 1940.4580078125 1931.22900390625 1916.22900390625 1899.0799560546875 1883.4010009765625 1869.5009765625 1857.08203125 1841.282958984375 1826.89404296875 1815.5140380859375 1802.0550537109375 1783.1259765625 1761.7860107421875 1743.2769775390625 1732.238037109375 1713.1180419921875 1688.928955078125 1674.3800048828125 1656.7110595703125 1635.6109619140625 1623.60205078125 1610.9029541015625 1606.7130126953125 1595.9339599609375 1580.625 1562.0050048828125 1545.4759521484375 1529.8570556640625 1513.157958984375 1494.7979736328125 1464.009033203125 1456.530029296875 1460.3299560546875 1439.56103515625 1421.2020263671875 1404.241943359375 1386.9429931640625 1372.0040283203125 1359.06494140625 1332.35498046875 1306.4959716796875 1283.8370361328125 1262.177001953125 1244.0679931640625 1222.8890380859375 1206.8289794921875 1193.4300537109375 1179.4119873046875 1167.1739501953125 1157.85595703125 1150.238037109375 1146.4200439453125 1143.491943359375 1136.9539794921875 1127.0460205078125 1118.907958984375 1110.7099609375 1110.4219970703125 1110.4239501953125 1110.595947265625 1118.5780029296875 1121.75 1126.251953125 1130.6829833984375 1135.114990234375 1139.39697265625 1144.5689697265625 1150.071044921875 1157.383056640625 1173.7049560546875 1191.626953125 1204.68896484375 1219.6510009765625 1230.81298828125 1245.4849853515625 1248.20703125 1248.76904296875 1258.2509765625 1267.06298828125 1271.9849853515625 1289.947021484375 1308.3590087890625 1325.541015625 1345.5830078125 1367.4449462890625 1383.947021484375 1396.6090087890625 1407.541015625 1412.512939453125 1414.135009765625 1410.7969970703125 1406.3590087890625 1405.291015625 1403.012939453125 1404.9649658203125 1402.967041015625 1416.8590087890625 1426.2010498046875 1438.863037109375 1454.35498046875 1469.95703125 1486.6390380859375 1507.071044921875 1530.6729736328125 1550.844970703125 1559.8470458984375 1575.989013671875 1595.1109619140625 1613.85302734375 1638.56494140625 1668.2569580078125 1685.219970703125 1698.7320556640625 1711.7939453125 1721.64599609375 1733.258056640625 1744.4200439453125 1756.60205078125 1770.0340576171875 1770.0340576171875 1780.115966796875 1787.5780029296875 1796.31005859375 1805.6219482421875 1807.2039794921875 1815.365966796875 1823.7879638671875 1840.5999755859375 1850.6719970703125 1863.9439697265625 1877.8360595703125 1889.8280029296875 1901.8599853515625 1921.821044921875 1935.3819580078125 1950.9129638671875 1972.35400390625 1982.18505859375 1997.7760009765625 2012.7569580078125 2033.14794921875 2054.998046875 2070.55908203125 2101.050048828125 2118.301025390625 2128.662109375 2130.5029296875 2140.60400390625 2143.044921875 2154.1259765625 2175.22607421875 2201.20703125 2225.85791015625 2250.18896484375 2251.8798828125 2246.216064453125 2247.751953125 -9999 -9999 -9999 -9999 -9999
-9999 -9999 -9999 -9999 -9999 -9999 -9999 -9999 -9999 -9999 -9999 -9999 2125.805908203125 2123.805908203125 2122.906982421875 2120.077880859375 2110.448974609375 2101.9990234375 2088.179931640625 2078.89111328125 2067.1708984375 2051.73193359375 2041.35302734375 2028.9930419921875 2019.4439697265625 2005.425048828125 1994.9959716796875 1985.5159912109375 1969.64697265625 1961.1080322265625 1951.998046875 1938.8189697265625 1923.5400390625 1906.9300537109375 1892.3509521484375 1878.052001953125 1862.79296875 1848.093017578125 1833.6639404296875 1818.9150390625 1801.344970703125 1784.406005859375 1768.18701171875 1752.8570556640625 1735.137939453125 1712.678955078125 1695.27001953125 1680.5799560546875 1661.041015625 1649.6920166015625 1637.092041015625 1628.762939453125 1610.9439697265625 1590.2740478515625 1569.68505859375 1549.4959716796875 1530.237060546875 1515.217041015625 1499.18798828125 1478.6590576171875 1478.5389404296875 1479.8199462890625 1468.8409423828125 1451.4110107421875 1432.8919677734375 1415.052978515625 1393.512939453125 1372.8740234375 1354.7349853515625 1335.2860107421875 1309.9859619140625 1283.386962890625 1262.68798828125 1244.677978515625 1229.3289794921875 1215.8499755859375 1201.6610107421875 1188.613037109375 1171.094970703125 1161.39697265625 1155.259033203125 1146.81103515625 1143.3819580078125 1138.31396484375 1131.156005859375 1121.988037109375 1113.800048828125 1110.072021484375 1110.114013671875 1112.2060546875 1120.157958984375 1123.72998046875 1126.8819580078125 1130.2340087890625 1134.635986328125 1138.9580078125 1142.8299560546875 1146.77197265625 1155.89404296875 1173.3160400390625 1189.3480224609375 1199.9300537109375 1210.761962890625 1222.154052734375 1228.5560302734375 1225.68798828125 1231.010009765625 1243.7320556640625 1250.0240478515625 1268.8360595703125 1283.0279541015625 1300.3699951171875 1317.741943359375 1337.7840576171875 1359.906005859375 1373.3480224609375 1384.1600341796875 1390.7320556640625 1392.14404296875 1393.0360107421875 1393.3580322265625 1387.6400146484375 1386.531982421875 1390.7340087890625 1390.6259765625 1403.197998046875 1415.449951171875 1429.501953125 1444.7139892578125 1466.35595703125 1481.008056640625 1497.9200439453125 1514.052001953125 1535.573974609375 1550.9560546875 1558.64794921875 1578.2900390625 1593.592041015625 1614.7239990234375 1639.7960205078125 1666.5980224609375 1683.6300048828125 1694.531982421875 1703.39404296875 1711.0059814453125 1723.8179931640625 1736.699951171875 1746.112060546875 1757.614013671875 1757.614013671875 1771.696044921875 1781.7879638671875 1791.219970703125 1795.9119873046875 1802.2039794921875 1806.676025390625 1817.428955078125 1832.3509521484375 1843.02294921875 1859.0550537109375 1870.677001953125 1877.3389892578125 1891.8409423828125 1911.052001953125 1922.9129638671875 1944.4840087890625 1955.2149658203125 1970.2860107421875 1986.967041015625 2005.748046875 2029.759033203125 2047.3590087890625 2067.919921875 2092.510986328125 2111.132080078125 2117.802978515625 2130.5439453125 2135.6650390625 2139.93603515625 2151.22607421875 2168.2470703125 2190.6279296875 2228.509033203125 2247.239990234375 2249.031005859375 2247.181884765625 2251.27294921875 -9999 -9999 -9999 -9999 -9999
-9999 -9999 -9999 -9999 -9999 -9999 -9999 -9999 -9999 -9999 -9999 -9999 2127.486083984375 2123.427001953125 2122.657958984375 2119.89794921875 2112.198974609375 2100.590087890625 2086.429931640625 2074.220947265625 2060.60205078125 2052.322998046875 2042.56298828125 2032.7139892578125 2021.9849853515625 2007.614990234375 1997.916015625 1988.18701171875 1978.406982421875 1966.8280029296875 1955.178955078125 1945.68994140625 1933.449951171875 1915.1109619140625 1898.1319580078125 1886.592041015625 1869.343017578125 1852.1639404296875 1834.323974609375 1820.31494140625 1805.18603515625 1787.9659423828125 1772.9169921875 1754.968017578125 1739.43896484375 1722.5789794921875 1709.1199951171875 1691.7010498046875 1674.791015625 1657.02197265625 1640.593017578125 1620.81298828125 1598.614013671875 1576.10498046875 1556.31494140625 1545.635986328125 1539.64697265625 1528.637939453125 1509.3380126953125 1504.178955078125 1502.8499755859375 1494.8800048828125 1478.970947265625 1462.261962890625 1445.052001953125 1424.02294921875 1403.0040283203125 1381.2440185546875 1359.81494140625 1336.5059814453125 1310.5169677734375 1289.5970458984375 1267.697998046875 1254.7989501953125 1241.72900390625 1225.02001953125 1208.3709716796875 1192.572998046875 1177.9649658203125 1166.7469482421875 1155.958984375 1147.9110107421875 1144.06201171875 1137.7540283203125 1131.365966796875 1124.3580322265625 1116.800048828125 1110.9820556640625 1109.625 1112.7860107421875 1121.8380126953125 1124.8199462890625 1127.9119873046875 1131.323974609375 1135.0660400390625 1140.2879638671875 1144.8699951171875 1149.9320068359375 1156.7840576171875 1171.9959716796875 1187.2779541015625 1193.469970703125 1199.251953125 1200.823974609375 1202.43603515625 1208.998046875 1214.8499755859375 1225.4720458984375 1241.89404296875 1261.2760009765625 1280.1180419921875 1297.6400146484375 1315.011962890625 1334.8050537109375 1351.8070068359375 1367.9990234375 1372.1109619140625 1372.873046875 1373.06494140625 1374.6669921875 1371.8790283203125 1371.0009765625 1372.4630126953125 1376.9749755859375 1389.2469482421875 1404.968994140625 1418.8709716796875 1432.302978515625 1455.135009765625 1468.376953125 1484.029052734375 1505.571044921875 1519.782958984375 1535.2750244140625 1552.886962890625 1561.5789794921875 1579.071044921875 1594.6429443359375 1611.125 1636.866943359375 1662.51904296875 1677.281005859375 1685.4429931640625 1694.5350341796875 1704.656982421875 1714.3590087890625 1726.510986328125 1734.7230224609375 1745.7650146484375 1745.7650146484375 1758.0770263671875 1770.2490234375 1779.240966796875 1791.133056640625 1803.9649658203125 1813.47705078125 1813.2989501953125 1824.1009521484375 1835.9429931640625 1844.8050537109375 1856.386962890625 1868.5400390625 1881.52197265625 1896.1629638671875 1905.384033203125 1923.89501953125 1950.0460205078125 1965.5770263671875 1983.6080322265625 2002.6090087890625 2021.698974609375 2042.3199462890625 2066.64111328125 2075.5419921875 2104.363037109375 2106.493896484375 2119.93505859375 2130.77587890625 2139.846923828125 2143.826904296875 2164.407958984375 2182.299072265625 2211.919921875 2238.90087890625 2250.662109375 2249.0029296875 2252.18408203125 -9999 -9999 -9999 -9999 -9999
-9999 -9999 -9999 -9999 -9999 -9999 -9999 -9999 -9999 -9999 -9999 -9999 2131.777099609375 2127.89794921875 2124.818115234375 2118.618896484375 2111.909912109375 2098.860107421875 2085.410888671875 2073.382080078125 2061.60205078125 2053.242919921875 2047.114013671875 2034.4239501953125 2020.925048828125 2011.7960205078125 2000.70703125 1993.6070556640625 1981.97802734375 1970.1590576171875 1958.47900390625 1949.760009765625 1939.1710205078125 1921.8310546875 1903.2220458984375 1889.9029541015625 1873.072998046875 1853.0140380859375 1837.0350341796875 1819.7259521484375 1806.5360107421875 1791.0069580078125 1778.2080078125 1757.16796875 1734.7490234375 1718.6300048828125 1702.77001953125 1683.8409423828125 1660.491943359375 1643.592041015625 1631.4429931640625 1609.81396484375 1597.06396484375 1584.125 1577.9759521484375 1562.1070556640625 1554.5369873046875 1541.177978515625 1531.4189453125 1525.18896484375 1518.050048828125 1505.3709716796875 1493.071044921875 1477.862060546875 1457.4429931640625 1435.0030517578125 1414.7039794921875 1393.85498046875 1370.9649658203125 1351.196044921875 1320.376953125 1299.5980224609375 1282.637939453125 1267.6490478515625 1249.68994140625 1230.52001953125 1211.27099609375 1196.883056640625 1183.43505859375 1171.677001953125 1161.529052734375 1152.1910400390625 1147.1929931640625 1139.2149658203125 1132.947021484375 1125.5589599609375 1118.8409423828125 1111.9530029296875 1109.625 1110.89697265625 1120.3389892578125 1124.1610107421875 1128.2230224609375 1132.2149658203125 1136.886962890625 1142.7989501953125 1147.7509765625 1154.4229736328125 1160.1650390625 1168.9169921875 1175.529052734375 1178.1309814453125 1181.343017578125 1187.135009765625 1196.39697265625 1205.509033203125 1214.8809814453125 1227.04296875 1241.7349853515625 1259.45703125 1278.8890380859375 1299.321044921875 1318.35302734375 1336.635009765625 1348.487060546875 1351.279052734375 1351.5810546875 1351.4630126953125 1349.824951171875 1350.5870361328125 1352.1590576171875 1357.010986328125 1368.633056640625 1380.594970703125 1393.717041015625 1409.928955078125 1421.1910400390625 1440.8330078125 1454.1650390625 1476.39697265625 1489.3189697265625 1505.02099609375 1518.4139404296875 1533.7159423828125 1549.0179443359375 1564.530029296875 1576.322021484375 1587.6639404296875 1609.406005859375 1632.89794921875 1660.780029296875 1674.281982421875 1679.2440185546875 1684.946044921875 1696.0279541015625 1706.2099609375 1715.6719970703125 1721.9739990234375 1734.0260009765625 1734.0260009765625 1745.738037109375 1755.3299560546875 1767.33203125 1782.1639404296875 1795.4759521484375 1809.7679443359375 1818.969970703125 1833.1219482421875 1825.4439697265625 1830.7259521484375 1837.9580078125 1854.6700439453125 1871.56201171875 1880.3740234375 1896.6949462890625 1916.7760009765625 1942.0970458984375 1959.8480224609375 1976.5389404296875 1991.760009765625 2012.4100341796875 2039.23095703125 2053.33203125 2066.873046875 2081.444091796875 2094.594970703125 2106.196044921875 2120.717041015625 2134.797119140625 2139.677978515625 2158.9990234375 2176.260009765625 2205.0009765625 2240.632080078125 2251.962890625 2251.1640625 -9999 -9999 -9999 -9999 -9999 -9999
-9999 -9999 -9999 -9999 -9999 -9999 -9999 -9999 -9999 -9999 -9999 2141.556884765625 2138.95703125 2134.137939453125 2125.468994140625 2119.968994140625 2111.179931640625 2100.430908203125 2087.001953125 2077.092041015625 2061.73291015625 2054.98388671875 2047.4139404296875 2033.9949951171875 2024.3759765625 2011.89599609375 2003.9169921875 1996.8079833984375 1987.387939453125 1973.489013671875 1961.1300048828125 1951.449951171875 1940.1409912109375 1926.4520263671875 1908.093017578125 1892.8330078125 1875.2239990234375 1856.675048828125 1839.9649658203125 1823.7860107421875 1810.22705078125 1793.95703125 1781.008056640625 1760.3189697265625 1738.8590087890625 1716.3199462890625 1694.551025390625 1681.321044921875 1673.1319580078125 1661.6929931640625 1644.2540283203125 1627.39404296875 1617.56494140625 1604.845947265625 1593.4859619140625 1584.697021484375 1573.43798828125 1565.5479736328125 1553.5789794921875 1544.6700439453125 1532.72998046875 1517.6510009765625 1500.1319580078125 1480.9219970703125 1462.572998046875 1443.06396484375 1422.6839599609375 1402.594970703125 1386.1259765625 1363.7960205078125 1335.8370361328125 1315.3780517578125 1296.0589599609375 1275.428955078125 1253.6400146484375 1233.27099609375 1219.031982421875 1207.864013671875 1195.7060546875 1181.97802734375 1169.280029296875 1158.751953125 1152.512939453125 1141.7850341796875 1134.8170166015625 1125.97900390625 1119.220947265625 1111.7130126953125 1108.425048828125 1109.5870361328125 1119.0489501953125 1123.8709716796875 1127.802978515625 1132.14501953125 1137.967041015625 1142.509033203125 1148.3509521484375 1155.613037109375 1161.0849609375 1163.97705078125 1170.509033203125 1181.9410400390625 1191.81298828125 1199.625 1214.8470458984375 1229.26904296875 1237.8809814453125 1244.9830322265625 1256.5250244140625 1262.2769775390625 1274.4000244140625 1291.112060546875 1311.114013671875 1324.9859619140625 1329.498046875 1331.5799560546875 1329.552001953125 1330.323974609375 1328.68603515625 1338.387939453125 1351.6700439453125 1363.77197265625 1375.9639892578125 1394.696044921875 1404.41796875 1414.02001953125 1425.85205078125 1445.5140380859375 1463.5860595703125 1483.7679443359375 1499.3900146484375 1508.33203125 1517.9739990234375 1530.9859619140625 1544.0679931640625 1559.1300048828125 1572.4219970703125 1585.634033203125 1604.5860595703125 1624.6280517578125 1645.9310302734375 1668.532958984375 1679.39501953125 1684.0269775390625 1689.5689697265625 1700.531005859375 1711.6529541015625 1720.31494140625 1725.406982421875 1725.406982421875 1741.759033203125 1746.4410400390625 1756.9329833984375 1772.844970703125 1785.5069580078125 1795.2889404296875 1807.4110107421875 1817.3929443359375 1824.425048828125 1818.237060546875 1831.1689453125 1841.740966796875 1856.31298828125 1873.7049560546875 1886.4560546875 1910.447021484375 1929.1180419921875 1952.9090576171875 1969.6600341796875 1980.5899658203125 1997.1009521484375 2015.751953125 2041.552978515625 2060.743896484375 2066.405029296875 2084.3759765625 2097.126953125 2114.597900390625 2126.4580078125 2135.839111328125 2149.300048828125 2165.240966796875 2189.362060546875 2216.79296875 2246.654052734375 2251.5048828125 -9999 -9999 -9999 -9999 -9999 -9999
-9999 -9999 -9999 -9999 -9999 -9999 -9999 -9999 -9999 -9999 -9999 2151.01708984375 2145.657958984375 2140.1689453125 2129.0791015625 2119.199951171875 2108.700927734375 2102.071044921875 2092.471923828125 2081.052978515625 2067.4130859375 2053.98388671875 2047.10498046875 2034.625 2023.5159912109375 2015.43701171875 2006.697998046875 1998.718017578125 1989.47900390625 1976.4200439453125 1966.6700439453125 1954.4310302734375 1940.822021484375 1923.4219970703125 1906.7030029296875 1888.85400390625 1871.7239990234375 1853.9849853515625 1834.885986328125 1821.5360107421875 1805.406982421875 1791.498046875 1775.137939453125 1756.4189453125 1740.77001953125 1720.4110107421875 1712.6409912109375 1702.58203125 1693.113037109375 1676.032958984375 1661.7840576171875 1645.31494140625 1632.885009765625 1621.0360107421875 1611.487060546875 1599.64697265625 1591.41796875 1581.8189697265625 1570.8389892578125 1559.1800537109375 1541.1009521484375 1523.7110595703125 1504.112060546875 1487.113037109375 1467.6729736328125 1448.3740234375 1434.385009765625 1418.2449951171875 1398.0360107421875 1373.7669677734375 1346.2569580078125 1328.9580078125 1305.3590087890625 1281.3399658203125 1260.050048828125 1242.77099609375 1229.031982421875 1217.2840576171875 1204.3160400390625 1189.8780517578125 1176.010009765625 1163.531982421875 1156.512939453125 1143.594970703125 1134.45703125 1127.01904296875 1118.9610595703125 1111.123046875 1107.885986328125 1108.8570556640625 1117.43896484375 1121.6209716796875 1126.633056640625 1131.655029296875 1137.0880126953125 1142.0899658203125 1147.9720458984375 1153.2139892578125 1158.2760009765625 1165.508056640625 1177.1099853515625 1181.5419921875 1187.7840576171875 1197.2359619140625 1217.8280029296875 1222.8499755859375 1225.35205078125 1232.7239990234375 1242.5460205078125 1252.0379638671875 1265.3299560546875 1280.10205078125 1299.823974609375 1306.8260498046875 1311.7679443359375 1315.3199462890625 1318.572021484375 1317.114013671875 1334.7760009765625 1349.3480224609375 1355.3699951171875 1367.261962890625 1378.31396484375 1398.18701171875 1408.4090576171875 1417.490966796875 1431.9730224609375 1453.3050537109375 1473.0069580078125 1489.3189697265625 1497.98095703125 1497.6629638671875 1512.9449462890625 1526.126953125 1536.8690185546875 1546.2010498046875 1564.2030029296875 1582.7750244140625 1601.47705078125 1618.1689453125 1637.1510009765625 1654.9530029296875 1666.5150146484375 1676.987060546875 1684.1590576171875 1690.2110595703125 1702.5340576171875 1706.7359619140625 1717.14794921875 1717.14794921875 1728.449951171875 1745.011962890625 1757.7440185546875 1765.5260009765625 1773.5980224609375 1782.75 1792.3719482421875 1801.7340087890625 1811.0059814453125 1821.8280029296875 1821.050048828125 1834.3819580078125 1844.583984375 1863.10595703125 1885.95703125 1900.0679931640625 1924.9090576171875 1943.8199462890625 1957.0009765625 1969.1810302734375 1984.6519775390625 1998.6529541015625 2008.6739501953125 2032.135009765625 2056.2060546875 2077.9169921875 2088.9580078125 2104.137939453125 2120.09912109375 2133.070068359375 2144.15087890625 2163.06201171875 2185.48291015625 2215.803955078125 2247.635009765625 2251.635009765625 -9999 -9999 -9999 -9999 -9999 -9999
-9999 -9999 -9999 -9999 -9999 -9999 -9999 -9999 -9999 -9999 2162.5869140625 2154.80810546875 2149.677978515625 2142.948974609375 2135.530029296875 2120.781005859375 2108.381103515625 2102.031982421875 2096.89306640625 2083.423095703125 2067.424072265625 2054.1650390625 2044.4949951171875 2031.426025390625 2024.0570068359375 2018.47705078125 2005.47802734375 1998.1390380859375 1987.2490234375 1975.5 1968.81103515625 1957.1109619140625 1943.6820068359375 1925.77294921875 1909.843017578125 1895.7039794921875 1875.7349853515625 1855.85498046875 1836.8260498046875 1819.64697265625 1800.8580322265625 1785.498046875 1769.5989990234375 1759.9200439453125 1749.0999755859375 1741.8909912109375 1729.2020263671875 1719.1519775390625 1705.5030517578125 1693.5240478515625 1677.803955078125 1663.885009765625 1651.5760498046875 1638.865966796875 1628.2469482421875 1618.22802734375 1606.927978515625 1594.8990478515625 1582.5400390625 1568.52001953125 1551.240966796875 1532.77197265625 1512.1920166015625 1493.4129638671875 1476.7440185546875 1460.904052734375 1445.675048828125 1424.865966796875 1402.9560546875 1378.156982421875 1372.907958984375 1342.177978515625 1315.5589599609375 1287.010009765625 1268.760986328125 1255.220947265625 1238.2320556640625 1224.35400390625 1208.135986328125 1196.907958984375 1180.699951171875 1164.58203125 1154.593017578125 1143.9859619140625 1134.97802734375 1127.4599609375 1120.4520263671875 1110.323974609375 1107.885986328125 1108.508056640625 1116.1099853515625 1121.6319580078125 1127.10400390625 1129.2359619140625 1135.47802734375 1140.8399658203125 1146.302001953125 1152.1240234375 1156.9560546875 1163.5679931640625 1170.3399658203125 1176.751953125 1184.884033203125 1201.2860107421875 1205.8079833984375 1211.5999755859375 1218.4320068359375 1224.9539794921875 1231.7259521484375 1242.759033203125 1256.0909423828125 1270.35302734375 1281.4749755859375 1291.487060546875 1297.0589599609375 1303.220947265625 1302.9530029296875 1322.68505859375 1337.8070068359375 1346.43896484375 1355.6009521484375 1370.31298828125 1379.7349853515625 1394.2469482421875 1406.3089599609375 1420.2509765625 1438.7330322265625 1459.6949462890625 1478.2969970703125 1482.72900390625 1475.1710205078125 1489.9139404296875 1503.196044921875 1516.1280517578125 1529.3800048828125 1537.862060546875 1554.1739501953125 1576.0059814453125 1592.39794921875 1610.1099853515625 1624.2120361328125 1642.9739990234375 1651.2760009765625 1661.468017578125 1669.56005859375 1682.8819580078125 1687.8740234375 1697.2459716796875 1707.39794921875 1707.39794921875 1718.791015625 1731.9530029296875 1743.5050048828125 1757.5469970703125 1765.208984375 1768.720947265625 1777.9730224609375 1787.614990234375 1800.6669921875 1811.468994140625 1818.31103515625 1823.822998046875 1839.7249755859375 1853.97705078125 1874.0179443359375 1896.22900390625 1918.469970703125 1930.010986328125 1939.6309814453125 1957.501953125 1973.383056640625 1982.384033203125 1993.7650146484375 2016.85595703125 2041.177001953125 2050.89794921875 2069.077880859375 2087.908935546875 2102.18994140625 2118.010986328125 2135.0419921875 2152.23291015625 2177.64404296875 2212.925048828125 2242.27587890625 2249.02587890625 2247.47705078125 -9999 -9999 -9999 -9999 -9999
-9999 -9999 -9999 -9999 -9999 -9999 -9999 -9999 -9999 -9999 2168.22802734375 2160.907958984375 2151.76904296875 2142.2900390625 2135.590087890625 2120.64111328125 2108.6220703125 2102.162109375 2092.613037109375 2083.56396484375 2070.194091796875 2056.125 2046.0760498046875 2034.5360107421875 2023.677001953125 2010.8680419921875 2000.998046875 1992.8289794921875 1983.8499755859375 1972.6810302734375 1965.8709716796875 1956.4320068359375 1947.123046875 1929.7530517578125 1910.81396484375 1893.56494140625 1878.5550537109375 1854.7259521484375 1832.0670166015625 1818.5369873046875 1808.41796875 1794.3089599609375 1779.3489990234375 1772.6600341796875 1762.821044921875 1754.5810546875 1741.3719482421875 1729.373046875 1719.5830078125 1708.884033203125 1695.7750244140625 1683.8349609375 1668.5560302734375 1654.0770263671875 1642.136962890625 1628.697998046875 1620.029052734375 1608.5789794921875 1593.4100341796875 1576.051025390625 1557.6910400390625 1538.8819580078125 1519.012939453125 1500.4630126953125 1487.7540283203125 1470.68505859375 1450.405029296875 1431.135986328125 1411.5269775390625 1400.636962890625 1379.6080322265625 1348.3890380859375 1317.3089599609375 1295.3800048828125 1280.1009521484375 1263.27099609375 1245.112060546875 1231.4139404296875 1216.0059814453125 1201.14794921875 1184.571044921875 1167.373046875 1159.593994140625 1143.8060302734375 1133.387939453125 1128.27001953125 1123.552001953125 1115.4339599609375 1107.885986328125 1108.93798828125 1113.6099853515625 1119.7919921875 1125.6939697265625 1127.5260009765625 1134.7080078125 1138.6700439453125 1143.8719482421875 1148.404052734375 1154.0870361328125 1161.2490234375 1168.3709716796875 1180.0030517578125 1190.31494140625 1197.237060546875 1204.958984375 1206.3609619140625 1217.60302734375 1225.5150146484375 1234.697021484375 1243.9990234375 1245.1610107421875 1260.6829833984375 1273.56494140625 1278.93701171875 1282.8189697265625 1290.9010009765625 1309.9830322265625 1322.135009765625 1334.8179931640625 1343.3800048828125 1357.9019775390625 1370.2440185546875 1384.8759765625 1399.5780029296875 1413.699951171875 1429.552001953125 1448.333984375 1465.906005859375 1458.427978515625 1453.0699462890625 1466.261962890625 1479.1939697265625 1491.676025390625 1505.968017578125 1519.530029296875 1531.9520263671875 1550.2650146484375 1565.737060546875 1583.279052734375 1599.571044921875 1619.873046875 1634.824951171875 1638.8270263671875 1645.8890380859375 1654.6309814453125 1669.4830322265625 1680.4649658203125 1686.677001953125 1699.18896484375 1699.18896484375 1704.3909912109375 1714.9530029296875 1731.344970703125 1745.7879638671875 1754.3800048828125 1755.6419677734375 1766.6939697265625 1779.2760009765625 1789.89794921875 1801.9200439453125 1810.302001953125 1818.134033203125 1827.5260009765625 1843.8179931640625 1868.259033203125 1888.3699951171875 1906.1109619140625 1914.81201171875 1924.9219970703125 1941.29296875 1952.9339599609375 1967.0050048828125 1980.0860595703125 1994.5570068359375 2011.43798828125 2031.43896484375 2054.908935546875 2071.090087890625 2084.98095703125 2100.751953125 2125.363037109375 2150.384033203125 2190.8349609375 2216.115966796875 2233.0458984375 2240.51708984375 2245.80810546875 2243.989013671875 -9999 -9999 -9999 -9999
-9999 -9999 -9999 -9999 -9999 -9999 -9999 -9999 -9999 -9999 2177.947998046875 2168.5390625 2156.6298828125 2144.010009765625 2136.541015625 2126.451904296875 2110.23193359375 2102.762939453125 2094.52392578125 2084.263916015625 2068.4150390625 2055.68603515625 2044.7060546875 2032.3470458984375 2021.988037109375 2008.387939453125 2000.3690185546875 1991.239990234375 1982.530029296875 1973.240966796875 1962.8819580078125 1949.4520263671875 1937.322998046875 1922.053955078125 1904.654052734375 1886.344970703125 1871.64599609375 1857.2860107421875 1843.1669921875 1831.0279541015625 1814.0579833984375 1799.4090576171875 1793.239990234375 1783.25 1774.1910400390625 1762.761962890625 1752.2919921875 1743.79296875 1733.2340087890625 1721.9139404296875 1708.60498046875 1694.9659423828125 1681.4759521484375 1666.116943359375 1654.1280517578125 1642.998046875 1630.458984375 1618.8199462890625 1602.68994140625 1582.8310546875 1562.31201171875 1545.1619873046875 1528.77294921875 1507.4739990234375 1490.634033203125 1475.324951171875 1456.406005859375 1440.426025390625 1424.14697265625 1396.7879638671875 1372.89794921875 1350.0889892578125 1326.06005859375 1303.780029296875 1283.6910400390625 1270.991943359375 1257.6729736328125 1238.175048828125 1220.3170166015625 1205.6390380859375 1189.7509765625 1172.532958984375 1163.2840576171875 1146.3759765625 1133.6180419921875 1129.550048828125 1124.1519775390625 1119.553955078125 1116.845947265625 1104.14794921875 1112.73095703125 1115.883056640625 1121.4649658203125 1126.5870361328125 1130.97900390625 1135.9610595703125 1140.4229736328125 1146.4449462890625 1158.7469482421875 1165.509033203125 1177.8509521484375 1181.802978515625 1188.39501953125 1194.7569580078125 1196.6689453125 1207.990966796875 1223.633056640625 1233.7149658203125 1241.5269775390625 1249.8399658203125 1255.1920166015625 1262.4639892578125 1270.385986328125 1280.718017578125 1289.1700439453125 1296.552001953125 1312.343994140625 1325.9759521484375 1338.1280517578125 1351.1300048828125 1363.56201171875 1379.9139404296875 1398.696044921875 1414.488037109375 1426.050048828125 1440.113037109375 1438.655029296875 1439.5770263671875 1434.8089599609375 1443.5810546875 1461.2230224609375 1466.875 1477.636962890625 1494.6190185546875 1512.73095703125 1529.52294921875 1541.375 1556.886962890625 1575.3389892578125 1588.470947265625 1605.1639404296875 1619.8260498046875 1627.998046875 1635.72998046875 1644.06201171875 1658.323974609375 1669.89599609375 1677.97802734375 1681.4300537109375 1681.4300537109375 1689.8819580078125 1702.6639404296875 1718.0159912109375 1730.677978515625 1740.6500244140625 1758.782958984375 1763.7249755859375 1770.22705078125 1781.8790283203125 1792.31103515625 1802.85302734375 1809.06494140625 1822.7869873046875 1836.8790283203125 1855.3699951171875 1873.6109619140625 1884.342041015625 1901.761962890625 1916.29296875 1923.2540283203125 1931.68505859375 1950.385986328125 1965.0169677734375 1976.3280029296875 1994.43896484375 2017.759033203125 2036.3299560546875 2057.4609375 2070.23193359375 2082.032958984375 2118.68408203125 2150.27490234375 2176.99609375 2198.35595703125 2214.556884765625 2225.008056640625 2235.759033203125 2240.81005859375 -9999 -9999 -9999 -9999
-9999 -9999 -9999 -9999 -9999 -9999 -9999 -9999 -9999 -9999 2194.218994140625 2185.0791015625 2165.6298828125 2149.881103515625 2141.361083984375 2128.781982421875 2114.552978515625 2105.14306640625 2091.48388671875 2079.574951171875 2065.405029296875 2053.666015625 2044.467041015625 2029.43701171875 2015.6280517578125 2004.529052734375 1997.22900390625 1988.47998046875 1979.6510009765625 1971.9610595703125 1963.342041015625 1952.282958984375 1938.4830322265625 1925.2740478515625 1911.85498046875 1896.3050537109375 1882.5760498046875 1864.97705078125 1850.14697265625 1836.0179443359375 1819.3089599609375 1814.009033203125 1804.949951171875 1793.071044921875 1783.02099609375 1772.7020263671875 1761.383056640625 1748.4329833984375 1741.833984375 1728.7550048828125 1715.175048828125 1700.615966796875 1686.697021484375 1674.72705078125 1663.968017578125 1652.178955078125 1639.76904296875 1622.22998046875 1607.260986328125 1589.4010009765625 1572.08203125 1554.593017578125 1536.052978515625 1514.5340576171875 1493.5550537109375 1475.7550048828125 1457.0159912109375 1438.8470458984375 1424.14697265625 1396.947998046875 1376.198974609375 1352.8489990234375 1331.9300537109375 1316.3809814453125 1302.3909912109375 1286.1519775390625 1269.9129638671875 1249.4649658203125 1227.8570556640625 1210.718994140625 1197.31103515625 1178.1829833984375 1166.89404296875 1150.426025390625 1136.6290283203125 1129.4510498046875 1127.512939453125 1123.864990234375 1119.447021484375 1106.1090087890625 1101.781005859375 1108.0830078125 1116.635009765625 1125.866943359375 1131.198974609375 1137.821044921875 1144.762939453125 1152.7750244140625 1160.8270263671875 1166.198974609375 1172.4410400390625 1178.1839599609375 1182.656005859375 1185.0179443359375 1202.489990234375 1215.2320556640625 1232.4239501953125 1245.5360107421875 1258.41796875 1263.68994140625 1261.9420166015625 1265.0340576171875 1271.5260009765625 1280.637939453125 1290.4000244140625 1304.7320556640625 1314.9449462890625 1325.5069580078125 1341.0689697265625 1357.9010009765625 1371.1629638671875 1386.655029296875 1397.5169677734375 1402.8489990234375 1408.791015625 1412.052978515625 1415.4949951171875 1416.467041015625 1423.968994140625 1442.6209716796875 1452.1839599609375 1460.0760498046875 1476.18798828125 1494.6400146484375 1512.6920166015625 1527.2540283203125 1535.0460205078125 1544.197998046875 1560.949951171875 1577.27197265625 1588.593994140625 1602.2259521484375 1614.0579833984375 1624.75 1637.383056640625 1645.4150390625 1658.14697265625 1663.8489990234375 1672.510986328125 1672.510986328125 1682.35302734375 1692.135009765625 1705.22705078125 1717.3690185546875 1736.4610595703125 1749.7230224609375 1758.89501953125 1768.177978515625 1780.1099853515625 1787.491943359375 1793.404052734375 1799.85595703125 1810.2879638671875 1820.75 1833.98095703125 1853.1219482421875 1865.262939453125 1885.9129638671875 1897.2340087890625 1907.9649658203125 1917.60595703125 1932.2469482421875 1948.2979736328125 1961.4090576171875 1981.9200439453125 2001.4599609375 2023.5009765625 2040.10205078125 2053.93310546875 2075.214111328125 2111.31494140625 2138.47607421875 2163.386962890625 2180.346923828125 2197.05810546875 2210.97900390625 2224.14990234375 2232.260986328125 -9999 -9999 -9999 -9999
-9999 -9999 -9999 -9999 -9999 -9999 -9999 -9999 -9999 -9999 2199.739013671875 2192.389892578125 2180.740966796875 2161.0009765625 2146.342041015625 2135.222900390625 2120.5029296875 2108.033935546875 2093.695068359375 2076.235107421875 2064.555908203125 2053.43701171875 2042.4169921875 2025.657958984375 2014.76904296875 2007.218994140625 2000.300048828125 1990.291015625 1980.1309814453125 1971.9219970703125 1964.052978515625 1954.7530517578125 1943.2939453125 1925.89501953125 1910.175048828125 1900.365966796875 1885.9169921875 1870.72705078125 1856.3480224609375 1842.8389892578125 1827.1490478515625 1817.02001953125 1808.541015625 1800.3909912109375 1789.241943359375 1781.54296875 1770.4630126953125 1757.5140380859375 1742.635009765625 1732.39501953125 1719.5860595703125 1704.7669677734375 1691.7769775390625 1681.157958984375 1671.5889892578125 1660.5689697265625 1645.6600341796875 1630.220947265625 1616.4510498046875 1599.842041015625 1583.4329833984375 1568.9429931640625 1549.2039794921875 1527.5040283203125 1500.2550048828125 1480.865966796875 1459.64599609375 1439.7969970703125 1423.5279541015625 1404.887939453125 1385.1190185546875 1362.9100341796875 1352.1500244140625 1334.4410400390625 1314.322021484375 1297.612060546875 1280.1529541015625 1258.89501953125 1238.45703125 1220.97900390625 1206.6610107421875 1186.56298828125 1175.2650146484375 1159.386962890625 1144.3690185546875 1133.031005859375 1130.032958984375 1127.885009765625 1124.156982421875 1110.18896484375 1103.9010009765625 1101.553955078125 1112.31494140625 1125.2569580078125 1131.1800537109375 1139.6419677734375 1146.884033203125 1155.0360107421875 1159.907958984375 1164.7900390625 1168.862060546875 1168.303955078125 1180.1259765625 1198.5379638671875 1214.219970703125 1225.991943359375 1243.5140380859375 1259.0460205078125 1269.4990234375 1282.1409912109375 1277.9730224609375 1281.56494140625 1277.8170166015625 1283.698974609375 1292.4210205078125 1300.56298828125 1310.1949462890625 1325.68701171875 1341.698974609375 1355.4510498046875 1359.552978515625 1367.405029296875 1379.93798828125 1390.8199462890625 1397.8919677734375 1399.593994140625 1399.43603515625 1406.8780517578125 1425.18994140625 1436.1519775390625 1444.2939453125 1458.2359619140625 1475.8179931640625 1490.760009765625 1504.3929443359375 1517.635009765625 1525.93701171875 1534.22900390625 1549.8809814453125 1565.4830322265625 1570.39501953125 1584.5770263671875 1598.3489990234375 1612.1810302734375 1622.883056640625 1635.885009765625 1644.157958984375 1654.3399658203125 1668.572021484375 1668.572021484375 1677.404052734375 1684.0260009765625 1696.0780029296875 1712.1700439453125 1727.1920166015625 1743.0340576171875 1753.0059814453125 1760.407958984375 1769.5699462890625 1779.9329833984375 1784.7650146484375 1790.97705078125 1793.6490478515625 1803.031005859375 1818.501953125 1834.782958984375 1848.8929443359375 1862.81396484375 1882.655029296875 1894.2559814453125 1908.0770263671875 1920.9580078125 1934.5689697265625 1949.8199462890625 1965.780029296875 1984.3709716796875 2005.2220458984375 2019.6629638671875 2037.1639404296875 2060.22509765625 2090.85595703125 2115.866943359375 2138.68701171875 2166.548095703125 2184.4189453125 2196.25 2206.841064453125 2220.201904296875 -9999 -9999 -9999 -9999
-9999 -9999 -9999 -9999 -9999 -9999 -9999 -9999 -9999 -9999 2206.7099609375 2198.760009765625 2186.5810546875 2172.33203125 2155.951904296875 2143.443115234375 2127.194091796875 2109.73388671875 2097.284912109375 2074.7958984375 2065.1259765625 2055.10693359375 2042.0379638671875 2027.258056640625 2015.009033203125 2008.02001953125 1999.7900390625 1996.260986328125 1985.842041015625 1977.35205078125 1969.2430419921875 1957.4339599609375 1939.4940185546875 1924.9749755859375 1913.2060546875 1901.85595703125 1885.487060546875 1868.9580078125 1853.407958984375 1842.4189453125 1834.3900146484375 1823.6700439453125 1815.0909423828125 1808.572021484375 1797.1820068359375 1785.822998046875 1771.39404296875 1758.5040283203125 1747.8050537109375 1732.0360107421875 1720.1259765625 1710.626953125 1695.8179931640625 1685.9580078125 1679.009033203125 1665.7900390625 1649.22998046875 1636.2010498046875 1623.592041015625 1610.501953125 1597.06298828125 1578.634033203125 1557.614013671875 1536.2149658203125 1512.1650390625 1487.595947265625 1466.5169677734375 1450.366943359375 1438.758056640625 1416.029052734375 1396.47900390625 1383.1800537109375 1365.5909423828125 1345.1309814453125 1324.1419677734375 1306.0830078125 1286.373046875 1268.615966796875 1250.2779541015625 1233.1800537109375 1214.9420166015625 1196.654052734375 1188.175048828125 1172.8170166015625 1156.468994140625 1140.510986328125 1133.52294921875 1131.1949462890625 1127.68701171875 1124.0699462890625 1112.6219482421875 1101.553955078125 1111.64599609375 1124.5279541015625 1130.0999755859375 1138.3919677734375 1143.4239501953125 1150.0360107421875 1154.907958984375 1157.27001953125 1160.6319580078125 1177.2139892578125 1194.64697265625 1214.468994140625 1227.010986328125 1235.4129638671875 1243.5150146484375 1254.0269775390625 1264.76904296875 1274.4110107421875 1289.552978515625 1295.875 1285.3170166015625 1281.3289794921875 1288.862060546875 1295.81396484375 1308.5760498046875 1324.68798828125 1338.530029296875 1341.822021484375 1351.7340087890625 1361.4659423828125 1371.68798828125 1380.4000244140625 1382.1920166015625 1381.114013671875 1387.5570068359375 1406.2889404296875 1414.9210205078125 1426.56298828125 1444.7850341796875 1462.4169921875 1472.9189453125 1483.6009521484375 1494.4730224609375 1504.864990234375 1511.0069580078125 1521.489013671875 1536.6719970703125 1553.7840576171875 1558.2960205078125 1571.97802734375 1584.75 1597.4019775390625 1610.9639892578125 1620.4859619140625 1631.6280517578125 1645.9000244140625 1654.7120361328125 1654.7120361328125 1667.35498046875 1680.3570556640625 1688.928955078125 1703.1910400390625 1721.302978515625 1739.864990234375 1745.68701171875 1757.198974609375 1760.3609619140625 1770.012939453125 1774.9859619140625 1780.677978515625 1785.7099609375 1788.592041015625 1802.4730224609375 1815.1529541015625 1833.7039794921875 1849.81494140625 1864.426025390625 1882.697021484375 1894.488037109375 1908.3489990234375 1921.699951171875 1936.6610107421875 1954.541015625 1969.1319580078125 1985.9329833984375 2005.083984375 2023.9150390625 2046.865966796875 2071.64697265625 2098.9970703125 2122.7080078125 2151.319091796875 2167.39990234375 2175.031005859375 2189.2119140625 2216.04296875 2217.9140625 -9999 -9999 -9999
-9999 -9999 -9999 -9999 -9999 -9999 -9999 -9999 -9999 -9999 2216.409912109375 2206.490966796875 2191.3720703125 2171.69189453125 2158.60302734375 2148.654052734375 2135.56396484375 2116.445068359375 2100.305908203125 2082.426025390625 2069.007080078125 2054.528076171875 2045.0479736328125 2033.76904296875 2016.6199951171875 2008.4100341796875 2001.990966796875 1993.2020263671875 1982.2919921875 1973.873046875 1965.573974609375 1953.093994140625 1935.885009765625 1924.2559814453125 1909.196044921875 1894.20703125 1874.5179443359375 1860.5780029296875 1845.6490478515625 1835.948974609375 1827.81005859375 1820.260986328125 1813.27099609375 1814.56201171875 1804.6929931640625 1789.7430419921875 1771.2840576171875 1755.68505859375 1740.7149658203125 1726.5860595703125 1715.0269775390625 1705.0069580078125 1696.3680419921875 1689.0589599609375 1676.8990478515625 1664.989990234375 1652.071044921875 1639.781005859375 1627.58203125 1612.4530029296875 1596.613037109375 1581.1240234375 1559.824951171875 1538.364990234375 1514.5760498046875 1492.7359619140625 1473.43701171875 1457.3480224609375 1446.5479736328125 1427.8089599609375 1415.8699951171875 1395.780029296875 1375.260986328125 1354.0419921875 1333.822021484375 1312.29296875 1290.4439697265625 1271.9959716796875 1258.0479736328125 1243.97998046875 1226.83203125 1212.7340087890625 1201.18505859375 1184.0169677734375 1164.1600341796875 1149.491943359375 1139.333984375 1135.2359619140625 1131.927978515625 1122.8800048828125 1110.251953125 1101.553955078125 1112.5460205078125 1123.39794921875 1128.9200439453125 1134.02197265625 1138.2540283203125 1140.447021484375 1142.178955078125 1149.9510498046875 1162.2530517578125 1172.7449951171875 1192.0970458984375 1211.3790283203125 1225.5909423828125 1233.113037109375 1239.06494140625 1249.5069580078125 1259.989990234375 1267.9119873046875 1281.7840576171875 1283.14599609375 1277.0179443359375 1279.530029296875 1284.9219970703125 1292.4840087890625 1305.8260498046875 1321.8780517578125 1332.4200439453125 1343.322998046875 1352.2049560546875 1358.197021484375 1369.3590087890625 1372.781005859375 1366.77294921875 1370.4749755859375 1379.3370361328125 1394.2889404296875 1407.4210205078125 1423.6629638671875 1441.5159912109375 1457.2080078125 1466.0799560546875 1476.4620361328125 1482.9639892578125 1489.0660400390625 1496.748046875 1506.97998046875 1523.4520263671875 1543.31396484375 1553.697021484375 1562.3289794921875 1574.52099609375 1586.4329833984375 1599.6949462890625 1611.6070556640625 1624.6190185546875 1634.9410400390625 1645.56298828125 1645.56298828125 1657.5550537109375 1671.5780029296875 1682.9300537109375 1698.1319580078125 1714.2939453125 1731.916015625 1739.488037109375 1745.239990234375 1750.4720458984375 1756.9639892578125 1761.196044921875 1769.3890380859375 1776.8909912109375 1782.4129638671875 1791.6639404296875 1802.4539794921875 1818.35498046875 1836.3260498046875 1852.97705078125 1865.218017578125 1881.509033203125 1895.300048828125 1909.9310302734375 1920.8310546875 1934.2320556640625 1951.322998046875 1971.5439453125 1999.574951171875 2023.595947265625 2044.697021484375 2066.0380859375 2084.80810546875 2110.009033203125 2132.639892578125 2144.841064453125 2158.56201171875 2187.85302734375 2207.424072265625 2212.135009765625 -9999 -9999 -9999
-9999 -9999 -9999 -9999 -9999 -9999 -9999 -9999 -9999 2236.669921875 2228.041015625 2215.072021484375 2201.322021484375 2181.27294921875 2164.43408203125 2152.75390625 2140.655029296875 2124.785888671875 2106.446044921875 2088.366943359375 2074.507080078125 2060.117919921875 2045.948974609375 2035.6390380859375 2021.9300537109375 2007.6309814453125 1999.3609619140625 1987.862060546875 1976.7030029296875 1960.5030517578125 1946.2139892578125 1939.5250244140625 1928.3050537109375 1915.4560546875 1899.8370361328125 1883.2469482421875 1868.718017578125 1854.5589599609375 1845.18896484375 1838.1400146484375 1826.791015625 1813.8409423828125 1805.261962890625 1799.3929443359375 1803.572998046875 1789.39404296875 1770.81396484375 1754.7049560546875 1735.5860595703125 1721.3360595703125 1711.0570068359375 1701.3480224609375 1691.0579833984375 1676.2889404296875 1667.4200439453125 1659.1400146484375 1651.791015625 1639.8919677734375 1627.4620361328125 1611.4429931640625 1593.7540283203125 1581.843994140625 1560.885009765625 1540.0660400390625 1520.0059814453125 1499.0670166015625 1481.20703125 1462.97802734375 1447.8189697265625 1431.8790283203125 1416.8299560546875 1402.1409912109375 1381.4110107421875 1363.58203125 1343.373046875 1320.4630126953125 1299.1639404296875 1277.365966796875 1263.0880126953125 1248.0400390625 1237.011962890625 1216.6939697265625 1204.2159423828125 1187.7879638671875 1175.239990234375 1158.9820556640625 1146.093994140625 1140.115966796875 1134.758056640625 1114.530029296875 1104.77197265625 1101.553955078125 1115.366943359375 1118.6390380859375 1123.23095703125 1125.0030517578125 1132.094970703125 1130.5069580078125 1144.0889892578125 1149.6009521484375 1158.60302734375 1167.0350341796875 1183.6070556640625 1202.010009765625 1219.9720458984375 1226.154052734375 1234.176025390625 1244.8179931640625 1253.9000244140625 1262.1219482421875 1268.9539794921875 1268.446044921875 1266.18798828125 1272.1510009765625 1279.373046875 1288.0550537109375 1304.18701171875 1318.218994140625 1328.1309814453125 1334.5030517578125 1339.155029296875 1345.7469482421875 1348.4990234375 1348.5419921875 1353.154052734375 1367.93603515625 1374.5579833984375 1387.93994140625 1404.7320556640625 1422.5240478515625 1437.595947265625 1451.7879638671875 1460.3399658203125 1466.3330078125 1471.6650390625 1475.1070556640625 1482.9189453125 1496.321044921875 1516.623046875 1541.4849853515625 1552.126953125 1555.489013671875 1564.98095703125 1580.833984375 1593.8260498046875 1606.677978515625 1618.719970703125 1627.322021484375 1636.14404296875 1636.14404296875 1647.0560302734375 1656.64794921875 1676.6099853515625 1693.02294921875 1705.9649658203125 1723.237060546875 1732.428955078125 1735.6810302734375 1739.06298828125 1743.0849609375 1748.3070068359375 1759.26904296875 1765.842041015625 1776.364013671875 1784.6739501953125 1795.0550537109375 1812.14599609375 1830.447021484375 1841.0179443359375 1852.428955078125 1865.3800048828125 1878.8609619140625 1894.9210205078125 1903.072021484375 1915.9930419921875 1940.634033203125 1969.06494140625 1996.635986328125 2024.5870361328125 2042.9580078125 2056.3779296875 2070.259033203125 2092.89990234375 2111.720947265625 2122.201904296875 2154.532958984375 2182.424072265625 2202.60498046875 2210.68505859375 -9999 -9999 -9999
-9999 -9999 -9999 -9999 -9999 -9999 -9999 -9999 -9999 2251.430908203125 2245.4609375 2224.39208984375 2206.06298828125 2188.48291015625 2173.52392578125 2160.764892578125 2145.31494140625 2127.26611328125 2111.886962890625 2092.487060546875 2075.818115234375 2060.009033203125 2046.698974609375 2034.449951171875 2021.321044921875 2006.77099609375 1981.991943359375 1969.4830322265625 1961.012939453125 1949.6839599609375 1932.0350341796875 1920.35498046875 1915.2760009765625 1903.0660400390625 1889.876953125 1874.3780517578125 1858.0279541015625 1848.218994140625 1837.47998046875 1835.6199951171875 1823.9410400390625 1810.2320556640625 1793.60205078125 1785.863037109375 1785.9439697265625 1778.4239501953125 1761.14501953125 1750.615966796875 1738.5159912109375 1725.217041015625 1712.5770263671875 1698.43798828125 1685.3890380859375 1669.8590087890625 1662.3699951171875 1654.760986328125 1645.9310302734375 1635.52197265625 1623.282958984375 1610.10302734375 1594.9239501953125 1579.7850341796875 1560.6949462890625 1544.64599609375 1522.5570068359375 1508.447021484375 1488.7779541015625 1469.8179931640625 1452.678955078125 1436.3399658203125 1422.47998046875 1408.4110107421875 1386.9019775390625 1368.011962890625 1346.1629638671875 1322.9139404296875 1301.1240234375 1282.9859619140625 1266.18798828125 1249.3409423828125 1233.4830322265625 1216.06494140625 1207.676025390625 1197.2679443359375 1181.9200439453125 1163.1820068359375 1152.6739501953125 1145.2359619140625 1133.7490234375 1112.1409912109375 1098.56298828125 1104.7149658203125 1109.93701171875 1116.5389404296875 1120.8909912109375 1121.9129638671875 1124.85498046875 1130.6070556640625 1136.0400390625 1143.6619873046875 1149.2039794921875 1160.0059814453125 1175.2779541015625 1195.510009765625 1210.302001953125 1219.7640380859375 1228.095947265625 1239.16796875 1246.801025390625 1252.113037109375 1254.10498046875 1252.8170166015625 1255.01904296875 1265.010986328125 1272.2130126953125 1285.385009765625 1297.20703125 1311.4090576171875 1320.6519775390625 1326.3740234375 1330.85595703125 1335.41796875 1333.4599609375 1335.4620361328125 1343.404052734375 1356.14599609375 1367.998046875 1384.7110595703125 1402.282958984375 1424.5050048828125 1440.8370361328125 1447.8890380859375 1452.970947265625 1456.843017578125 1455.8349609375 1463.386962890625 1473.3299560546875 1493.77197265625 1507.1939697265625 1522.6259765625 1542.968017578125 1549.5799560546875 1558.8819580078125 1572.6839599609375 1586.095947265625 1602.1290283203125 1610.9510498046875 1621.822998046875 1628.9449462890625 1628.9449462890625 1635.7869873046875 1647.43896484375 1661.6910400390625 1680.27294921875 1700.93603515625 1711.447998046875 1722.52001953125 1728.552001953125 1727.9739990234375 1733.656005859375 1742.748046875 1750.199951171875 1757.6820068359375 1765.6650390625 1775.5250244140625 1788.0760498046875 1803.636962890625 1819.5179443359375 1829.428955078125 1838.050048828125 1847.56103515625 1860.511962890625 1876.8719482421875 1889.5830078125 1900.0040283203125 1924.18505859375 1956.2259521484375 1984.876953125 2013.39794921875 2032.51904296875 2038.93896484375 2054.27001953125 2074.571044921875 2091.132080078125 2125.212890625 2150.81396484375 2175.514892578125 2198.205078125 2204.466064453125 -9999 -9999 -9999
-9999 -9999 -9999 -9999 -9999 -9999 -9999 -9999 -9999 -9999 2249.552001953125 2231.822998046875 2208.123046875 2193.97412109375 2181.324951171875 2167.7548828125 2150.35595703125 2130.197021484375 2113.547119140625 2094.568115234375 2075.958984375 2057.2490234375 2040.760009765625 2027.06005859375 2010.260986328125 1995.7120361328125 1978.8719482421875 1961.8330078125 1949.7540283203125 1939.4339599609375 1925.2950439453125 1910.8260498046875 1900.2359619140625 1892.406982421875 1880.4580078125 1865.998046875 1850.5789794921875 1837.1700439453125 1828.8399658203125 1821.3709716796875 1809.1409912109375 1800.4820556640625 1790.1829833984375 1775.79296875 1765.9840087890625 1759.8349609375 1748.574951171875 1733.9560546875 1727.947021484375 1721.5469970703125 1721.22802734375 1706.76904296875 1687.698974609375 1671.2099609375 1661.050048828125 1652.9510498046875 1645.2320556640625 1631.6519775390625 1622.4730224609375 1608.7640380859375 1593.823974609375 1580.4849853515625 1562.68603515625 1544.865966796875 1527.5269775390625 1511.718017578125 1494.16796875 1476.218994140625 1459.2490234375 1442.3299560546875 1428.6510009765625 1409.291015625 1390.1419677734375 1367.113037109375 1345.1829833984375 1323.2039794921875 1300.675048828125 1280.2869873046875 1264.1190185546875 1249.6510009765625 1234.633056640625 1216.3349609375 1205.635986328125 1186.0679931640625 1174.22998046875 1164.032958984375 1155.5050048828125 1147.406982421875 1126.8489990234375 1112.3909912109375 1099.6429443359375 1094.2850341796875 1097.677001953125 1108.428955078125 1112.302001953125 1115.9639892578125 1121.0260009765625 1124.0479736328125 1128.7900390625 1133.531982421875 1140.2440185546875 1154.5460205078125 1166.2080078125 1185.6099853515625 1203.2430419921875 1215.4949951171875 1223.927001953125 1233.529052734375 1239.1209716796875 1243.3330078125 1239.2349853515625 1240.7569580078125 1247.989013671875 1258.35205078125 1268.35400390625 1277.7960205078125 1289.41796875 1304.030029296875 1313.1820068359375 1319.06396484375 1322.5159912109375 1322.26904296875 1318.9610595703125 1325.512939453125 1340.5150146484375 1358.1669921875 1370.47900390625 1388.6209716796875 1410.02294921875 1428.2550048828125 1435.0880126953125 1439.5 1446.052001953125 1444.9840087890625 1447.39599609375 1453.5980224609375 1466.3699951171875 1483.3919677734375 1495.6949462890625 1509.8270263671875 1526.8189697265625 1545.1109619140625 1553.3929443359375 1562.594970703125 1581.2869873046875 1595.989013671875 1605.5810546875 1613.39404296875 1619.885986328125 1619.885986328125 1626.5980224609375 1640.72998046875 1654.1319580078125 1669.4739990234375 1685.615966796875 1701.498046875 1707.9310302734375 1714.032958984375 1718.2650146484375 1725.116943359375 1730.928955078125 1738.541015625 1747.56298828125 1755.5450439453125 1764.095947265625 1777.0269775390625 1792.8580322265625 1806.6390380859375 1814.8599853515625 1822.5810546875 1826.9520263671875 1839.4520263671875 1856.4830322265625 1871.0240478515625 1890.2449951171875 1919.2760009765625 1947.7669677734375 1977.43798828125 1997.8690185546875 2005.3489990234375 2020.1300048828125 2045.1910400390625 2069.181884765625 2092.77294921875 2116.98388671875 2141.885009765625 2169.0458984375 2191.2060546875 2199.9970703125 -9999 -9999 -9999
-9999 -9999 -9999 -9999 -9999 -9999 -9999 -9999 -9999 2269.56201171875 2258.113037109375 2237.903076171875 2216.4541015625 2199.155029296875 2185.844970703125 2171.2060546875 2152.805908203125 2132.626953125 2111.998046875 2095.318115234375 2076.9990234375 2057.9599609375 2038.780029296875 2020.8509521484375 2005.511962890625 1990.802001953125 1970.52294921875 1954.323974609375 1938.60400390625 1931.10498046875 1917.7449951171875 1899.7060546875 1889.93701171875 1879.72705078125 1868.8079833984375 1858.5489501953125 1840.1290283203125 1823.8299560546875 1814.791015625 1807.6610107421875 1796.4019775390625 1788.032958984375 1784.873046875 1778.7239990234375 1764.9339599609375 1744.864990234375 1733.9560546875 1723.5860595703125 1716.5269775390625 1711.72802734375 1711.3280029296875 1704.7490234375 1692.050048828125 1674.8599853515625 1662.8709716796875 1650.321044921875 1638.302001953125 1628.56298828125 1614.2030029296875 1602.2640380859375 1587.4849853515625 1571.824951171875 1557.3759765625 1544.656982421875 1529.5469970703125 1513.18798828125 1494.947998046875 1478.3489990234375 1463.5699462890625 1450.9100341796875 1433.0009765625 1411.0419921875 1390.281982421875 1367.343017578125 1347.053955078125 1324.5040283203125 1302.7449951171875 1283.8070068359375 1261.4189453125 1233.6009521484375 1216.1629638671875 1199.135009765625 1187.7469482421875 1173.458984375 1159.8509521484375 1149.2530517578125 1139.135009765625 1131.427001953125 1122.1490478515625 1113.6810302734375 1106.613037109375 1095.7960205078125 1092.5360107421875 1105.1099853515625 1108.822021484375 1111.5340576171875 1115.385986328125 1117.43798828125 1121.030029296875 1127.4029541015625 1132.56494140625 1142.177001953125 1158.989013671875 1176.48095703125 1195.31298828125 1212.375 1221.8470458984375 1227.3990478515625 1227.6319580078125 1226.803955078125 1223.0560302734375 1228.4580078125 1240.6800537109375 1256.2919921875 1265.7640380859375 1276.2659912109375 1289.93896484375 1295.23095703125 1300.0830078125 1303.8050537109375 1306.5870361328125 1309.0389404296875 1308.4410400390625 1319.1429443359375 1339.4749755859375 1363.0980224609375 1378.6099853515625 1394.9119873046875 1415.4940185546875 1420.345947265625 1420.8280029296875 1425.52001953125 1429.6820068359375 1432.4549560546875 1439.3270263671875 1447.3089599609375 1458.541015625 1472.093017578125 1485.9849853515625 1502.116943359375 1517.6800537109375 1533.85205078125 1547.2139892578125 1554.7659912109375 1571.0880126953125 1585.219970703125 1595.2919921875 1603.5439453125 1610.47705078125 1610.47705078125 1620.0489501953125 1632.5810546875 1648.29296875 1660.7850341796875 1673.68701171875 1687.0689697265625 1695.6610107421875 1698.303955078125 1705.35595703125 1711.927978515625 1718.510009765625 1725.251953125 1735.10400390625 1745.2960205078125 1753.45703125 1764.8280029296875 1779.7889404296875 1791.0799560546875 1801.48095703125 1806.751953125 1815.5830078125 1829.06298828125 1841.9139404296875 1851.4449462890625 1883.656005859375 1911.886962890625 1929.5279541015625 1948.9189453125 1976.3399658203125 2005.0899658203125 2027.260986328125 2047.261962890625 2067.93310546875 2089.85400390625 2112.844970703125 2139.906005859375 2165.18603515625 2185.616943359375 2195.657958984375 2197.968994140625 -9999 -9999
-9999 -9999 -9999 -9999 -9999 -9999 -9999 -9999 -9999 2285.56201171875 2268.052978515625 2250.10400390625 2226.85400390625 2203.135009765625 2190.115966796875 2174.0859375 2155.326904296875 2135.697998046875 2114.248046875 2094.0791015625 2076.590087890625 2057.6201171875 2038.3310546875 2020.220947265625 2003.8919677734375 1986.4730224609375 1968.373046875 1951.06396484375 1934.0450439453125 1923.35498046875 1909.926025390625 1894.987060546875 1884.947021484375 1874.97802734375 1866.0279541015625 1852.3990478515625 1832.3199462890625 1807.6500244140625 1800.31103515625 1794.9219970703125 1784.112060546875 1779.093017578125 1777.7340087890625 1771.89404296875 1760.114990234375 1743.4749755859375 1721.7760009765625 1714.3470458984375 1704.3570556640625 1696.3580322265625 1691.989013671875 1687.759033203125 1686.5999755859375 1674.051025390625 1661.321044921875 1648.9820556640625 1634.4219970703125 1621.4830322265625 1608.2039794921875 1595.9139404296875 1580.5250244140625 1561.0760498046875 1549.6259765625 1534.47705078125 1519.91796875 1509.968017578125 1487.8790283203125 1470.6390380859375 1457.1700439453125 1446.9510498046875 1427.6610107421875 1408.06201171875 1389.802978515625 1365.81298828125 1343.4639892578125 1321.89501953125 1301.125 1282.616943359375 1258.8289794921875 1227.791015625 1203.9639892578125 1187.7259521484375 1177.5069580078125 1166.948974609375 1158.4110107421875 1150.04296875 1141.4649658203125 1137.0670166015625 1129.6700439453125 1118.501953125 1107.10400390625 1098.93603515625 1092.5360107421875 1098.010009765625 1104.4620361328125 1107.2840576171875 1108.427001953125 1111.68896484375 1113.4310302734375 1121.262939453125 1127.1650390625 1135.8370361328125 1152.6490478515625 1171.6810302734375 1189.4940185546875 1203.5860595703125 1212.3280029296875 1209.8199462890625 1207.362060546875 1211.9239501953125 1216.9859619140625 1221.2779541015625 1237.3310546875 1253.2230224609375 1262.2850341796875 1274.0770263671875 1275.1689453125 1276.220947265625 1283.052978515625 1289.06494140625 1294.7779541015625 1295.75 1304.802001953125 1326.573974609375 1353.3759765625 1370.8480224609375 1381.510009765625 1395.9129638671875 1401.2850341796875 1400.70703125 1405.01904296875 1411.5909423828125 1418.1429443359375 1426.10498046875 1437.0369873046875 1446.9000244140625 1456.60205078125 1466.593994140625 1479.39599609375 1495.387939453125 1508.02001953125 1523.3719482421875 1543.4549560546875 1549.0770263671875 1561.6090087890625 1574.2110595703125 1584.4730224609375 1594.875 1602.64697265625 1602.64697265625 1610.2490234375 1621.751953125 1640.7740478515625 1652.2359619140625 1662.3680419921875 1671.469970703125 1678.9620361328125 1684.6639404296875 1696.5069580078125 1701.8289794921875 1706.9210205078125 1715.873046875 1725.7149658203125 1734.197021484375 1741.3580322265625 1752.3790283203125 1765.030029296875 1775.56103515625 1784.4420166015625 1792.782958984375 1803.9429931640625 1814.2540283203125 1827.3349609375 1838.9659423828125 1870.8570556640625 1906.157958984375 1931.029052734375 1955.280029296875 1978.9000244140625 1999.801025390625 2022.531982421875 2044.133056640625 2066.4140625 2088.39501953125 2109.466064453125 2131.85693359375 2160.22705078125 2177.778076171875 2190.72900390625 2200 -9999 -9999
-9999 -9999 -9999 -9999 -9999 -9999 -9999 -9999 -9999 2294.712890625 2278.533935546875 2252.1640625 2228.465087890625 2209.0458984375 2191.926025390625 2176.076904296875 2157.10693359375 2136.617919921875 2115.118896484375 2094.5791015625 2074.97998046875 2057.031005859375 2038.1009521484375 2019.9119873046875 2002.77294921875 1985.6429443359375 1968.6240234375 1952.093994140625 1936.3349609375 1923.135986328125 1907.6259765625 1892.4969482421875 1883.93798828125 1874.8780517578125 1861.4090576171875 1845.719970703125 1826.1600341796875 1807.720947265625 1796.321044921875 1786.6820068359375 1777.072998046875 1767.4129638671875 1763.2640380859375 1758.0350341796875 1748.614990234375 1733.7559814453125 1717.467041015625 1698.8070068359375 1692.8680419921875 1685.3680419921875 1680.0989990234375 1675.8699951171875 1672.18994140625 1667.1510009765625 1654.60205078125 1638.6219482421875 1623.8929443359375 1613.7130126953125 1601.833984375 1588.93505859375 1572.3349609375 1554.7359619140625 1541.156982421875 1526.20703125 1511.3680419921875 1494.51904296875 1480.178955078125 1462.6300048828125 1449.510009765625 1434.98095703125 1417.4019775390625 1401.1619873046875 1384.9429931640625 1363.823974609375 1342.5340576171875 1322.7950439453125 1300.5849609375 1279.89697265625 1255.530029296875 1228.241943359375 1204.864013671875 1187.3060302734375 1178.5369873046875 1170.779052734375 1168.9110107421875 1167.7239990234375 1165.7060546875 1149.7779541015625 1138.949951171875 1124.6419677734375 1110.1739501953125 1092.5360107421875 1094.447998046875 1098.8310546875 1101.363037109375 1104.135009765625 1102.126953125 1104.93896484375 1107.31103515625 1117.762939453125 1121.5660400390625 1130.0780029296875 1145.780029296875 1163.6820068359375 1180.7440185546875 1192.416015625 1192.64794921875 1187.969970703125 1189.5030517578125 1194.7750244140625 1208.0670166015625 1219.6090087890625 1232.970947265625 1245.1729736328125 1257.4849853515625 1260.3580322265625 1256.5699462890625 1260.2120361328125 1266.1240234375 1272.7960205078125 1281.8580322265625 1299.5799560546875 1323.02197265625 1342.675048828125 1362.616943359375 1371.698974609375 1376.571044921875 1380.052978515625 1382.885009765625 1388.0169677734375 1396.030029296875 1407.4119873046875 1422.073974609375 1435.3260498046875 1441.6080322265625 1450.81005859375 1457.072021484375 1468.114990234375 1478.177001953125 1489.708984375 1500.9210205078125 1516.7230224609375 1528.4949951171875 1541.427001953125 1554.219970703125 1566.2320556640625 1576.553955078125 1583.35595703125 1590.0579833984375 1590.0579833984375 1600.3499755859375 1613.1219482421875 1631.0050048828125 1644.68701171875 1652.0889892578125 1659.8310546875 1668.383056640625 1675.56494140625 1684.14697265625 1692.1400146484375 1698.8819580078125 1707.9339599609375 1715.7060546875 1725.18798828125 1733.6290283203125 1742.300048828125 1751.551025390625 1761.4520263671875 1770.3929443359375 1780.4439697265625 1791.4239501953125 1803.0849609375 1813.85595703125 1828.8070068359375 1863.677978515625 1891.989013671875 1923.280029296875 1951.8299560546875 1975.821044921875 2001.251953125 2023.802978515625 2045.5439453125 2066.324951171875 2087.89599609375 2107.595947265625 2131.576904296875 2158.008056640625 2175.489013671875 2184.6298828125 2190.4609375 2189.781982421875 2183.98193359375
-9999 -9999 -9999 -9999 -9999 -9999 -9999 -9999 -9999 2302.27392578125 2277.77392578125 2258.68505859375 2230.794921875 2211.8359375 2194.43701171875 2178.70703125 2158.0380859375 2137.55908203125 2117.05908203125 2096.580078125 2076.94091796875 2058.73095703125 2040.572021484375 2023.2320556640625 2006.0030517578125 1990.1739501953125 1974.3740234375 1957.81494140625 1940.7060546875 1922.0460205078125 1903.5970458984375 1888.3780517578125 1879.7979736328125 1869.6590576171875 1856.2490234375 1844.4200439453125 1830.0009765625 1815.02099609375 1801.6820068359375 1784.7130126953125 1772.6529541015625 1761.583984375 1750.14404296875 1745.2349853515625 1735.2259521484375 1722.4659423828125 1709.5870361328125 1692.0279541015625 1679.2979736328125 1674.5789794921875 1667.3690185546875 1658.3699951171875 1656.6409912109375 1650.73095703125 1646.6920166015625 1630.3330078125 1613.4329833984375 1602.4239501953125 1592.093994140625 1580.5450439453125 1558.595947265625 1547.1259765625 1534.8170166015625 1521.4580078125 1507.718017578125 1488.279052734375 1474.1190185546875 1459.449951171875 1446.6209716796875 1431.56103515625 1415.5419921875 1403.4730224609375 1386.6829833984375 1369.154052734375 1345.64404296875 1323.905029296875 1301.196044921875 1275.8380126953125 1254.2900390625 1233.802001953125 1214.154052734375 1194.615966796875 1193.1180419921875 1192.6400146484375 1190.751953125 1191.10400390625 1173.926025390625 1155.6080322265625 1140.2099609375 1130.511962890625 1114.9849853515625 1089.7769775390625 1089.458984375 1093.9310302734375 1096.572998046875 1096.135009765625 1096.386962890625 1098.8800048828125 1101.491943359375 1111.5340576171875 1116.9959716796875 1123.218017578125 1137.8199462890625 1155.572021484375 1169.2449951171875 1173.9969482421875 1169.6190185546875 1171.720947265625 1178.0830078125 1187.14501953125 1204.39697265625 1212.178955078125 1223.08203125 1234.2740478515625 1238.0760498046875 1237.89794921875 1241.06005859375 1248.6519775390625 1258.14404296875 1273.2569580078125 1295.6090087890625 1320.1910400390625 1342.5030517578125 1348.85498046875 1357.6669921875 1362.9000244140625 1363.6519775390625 1367.1240234375 1374.0460205078125 1384.0179443359375 1400.030029296875 1412.7320556640625 1423.925048828125 1430.39697265625 1442.029052734375 1445.0810546875 1452.8330078125 1464.7650146484375 1473.0469970703125 1483.6090087890625 1493.08203125 1503.833984375 1517.2259521484375 1532.91796875 1547.8599853515625 1561.4620361328125 1570.654052734375 1578.126953125 1586.0989990234375 1586.0989990234375 1594.6610107421875 1605.4229736328125 1620.7349853515625 1632.2469482421875 1640.47900390625 1651.781005859375 1660.593994140625 1665.885986328125 1671.7679443359375 1677.969970703125 1684.052001953125 1693.7840576171875 1704.7760009765625 1716.9990234375 1725.550048828125 1733.4200439453125 1743.1610107421875 1751.251953125 1761.7430419921875 1772.6639404296875 1781.2049560546875 1792.2060546875 1803.845947265625 1822.9969482421875 1855.0579833984375 1879.6490478515625 1910.3399658203125 1939.7110595703125 1964.751953125 1994.612060546875 2022.77294921875 2046.5040283203125 2066.68505859375 2088.216064453125 2108.31689453125 2130.41796875 2152.617919921875 2169.47900390625 2178.110107421875 2181.87109375 2181.112060546875 2177.5830078125
-9999 -9999 -9999 -9999 -9999 -9999 -9999 -9999 -9999 2310.634033203125 2290.375 2263.304931640625 2239.35595703125 2214.20703125 2194.846923828125 2179.968017578125 2160.43896484375 2141.888916015625 2121.1298828125 2100.080078125 2079.52099609375 2059.902099609375 2043.2220458984375 2027.2230224609375 2010.0140380859375 1993.7440185546875 1977.4849853515625 1959.7950439453125 1943.2960205078125 1921.6669921875 1901.70703125 1884.137939453125 1868.93896484375 1860.698974609375 1852.969970703125 1838.9000244140625 1826.3809814453125 1811.81201171875 1798.31201171875 1781.6429443359375 1770.2139892578125 1752.573974609375 1737.385009765625 1727.2650146484375 1718.8260498046875 1706.5770263671875 1694.7669677734375 1685.41796875 1661.5589599609375 1655.6689453125 1657.4300537109375 1645.3499755859375 1642.301025390625 1638.2020263671875 1630.9320068359375 1623.31298828125 1603.7239990234375 1586.5439453125 1578.4549560546875 1563.9150390625 1549.7459716796875 1537.237060546875 1525.8570556640625 1511.68798828125 1501.5689697265625 1486.5889892578125 1473.969970703125 1462.550048828125 1449.5909423828125 1436.4620361328125 1420.8819580078125 1403.9630126953125 1387.35400390625 1368.5240478515625 1344.35498046875 1322.2750244140625 1303.3160400390625 1280.947998046875 1258.010009765625 1236.4019775390625 1212.303955078125 1213.4969482421875 1213.68798828125 1214.239990234375 1213.9820556640625 1199.4840087890625 1180.595947265625 1161.72900390625 1145.281005859375 1132.552978515625 1123.875 1103.9169921875 1090.2490234375 1082.9510498046875 1089.1529541015625 1091.2159423828125 1087.637939453125 1091 1093.761962890625 1101.4539794921875 1114.0860595703125 1116.8380126953125 1128.27099609375 1143.873046875 1157.7550048828125 1154.2669677734375 1156.759033203125 1161.3809814453125 1170.1429443359375 1191.0460205078125 1195.5279541015625 1202.72998046875 1210.6419677734375 1215.4139404296875 1224.135986328125 1231.47802734375 1242.9200439453125 1258.0830078125 1275.135009765625 1297.0469970703125 1318.5889892578125 1334.4510498046875 1342.4830322265625 1345.0350341796875 1347.47802734375 1349 1354.08203125 1359.85400390625 1378.385986328125 1393.7679443359375 1404.300048828125 1411.572998046875 1420.43505859375 1425.64697265625 1433.8690185546875 1440.3509521484375 1447.343017578125 1458.114990234375 1467.0570068359375 1475.7099609375 1484.612060546875 1496.64404296875 1507.8260498046875 1520.748046875 1537.22998046875 1552.491943359375 1565.114990234375 1576.5770263671875 1585.5389404296875 1585.5389404296875 1595.4310302734375 1601.282958984375 1614.344970703125 1625.126953125 1634.029052734375 1646.4620361328125 1651.864013671875 1651.93603515625 1654.887939453125 1659.5400390625 1670.6719970703125 1681.4739990234375 1696.2969970703125 1706.8189697265625 1714.68994140625 1723.220947265625 1731.9210205078125 1743.4620361328125 1753.883056640625 1763.1739501953125 1772.5849609375 1780.3160400390625 1792.72705078125 1811.3070068359375 1839.64794921875 1870.468994140625 1902.47998046875 1924.7110595703125 1960.6319580078125 1986.1429443359375 2016.10302734375 2041.1839599609375 2062.205078125 2082.77587890625 2104.26708984375 2126.827880859375 2149.84912109375 2162.929931640625 2170.6201171875 2175.240966796875 2175.27197265625 2169.822998046875
-9999 -9999 -9999 -9999 -9999 -9999 -9999 -9999 2326.553955078125 2304.985107421875 2284.905029296875 2267.64599609375 2247.257080078125 2220.89697265625 2199.498046875 2181.447998046875 2162.34912109375 2142.219970703125 2122.159912109375 2101.361083984375 2084.681884765625 2066.322021484375 2049.14306640625 2032.2230224609375 2016.0040283203125 1998.81494140625 1982.824951171875 1965.7659912109375 1947.376953125 1927.2669677734375 1907.0179443359375 1889.8079833984375 1872.9990234375 1854.6199951171875 1837.300048828125 1823.3809814453125 1811.612060546875 1793.8819580078125 1776.262939453125 1763.35302734375 1753.343994140625 1741.5150146484375 1721.68505859375 1711.2459716796875 1703.376953125 1693.8070068359375 1683.508056640625 1671.0179443359375 1656.43896484375 1636.3599853515625 1634.4200439453125 1632.6109619140625 1624.470947265625 1617.822021484375 1613.383056640625 1606.7030029296875 1594.333984375 1580.9949951171875 1573.9849853515625 1548.7060546875 1528.7259521484375 1523.7669677734375 1514.5579833984375 1501.5379638671875 1492.009033203125 1481.1190185546875 1468.4300537109375 1455.6109619140625 1446.6710205078125 1431.6619873046875 1416.4630126953125 1398.77294921875 1380.9439697265625 1367.384033203125 1346.8050537109375 1325.0560302734375 1304.7259521484375 1281.2879638671875 1251.6800537109375 1231.4119873046875 1230.574951171875 1234.447021484375 1237.0780029296875 1239.31005859375 1224.1319580078125 1206.073974609375 1187.0670166015625 1170.22900390625 1153.3809814453125 1138.6629638671875 1131.7550048828125 1122.947021484375 1104.8790283203125 1086.1619873046875 1080.3260498046875 1082.9859619140625 1085.3079833984375 1084.8900146484375 1084.592041015625 1091.2340087890625 1105.166015625 1112.8890380859375 1118.720947265625 1134.5030517578125 1141.2650146484375 1142.5870361328125 1147.259033203125 1159.7010498046875 1177.3740234375 1183.926025390625 1185.6080322265625 1196.239990234375 1209.741943359375 1224.904052734375 1237.2159423828125 1247.91796875 1268.801025390625 1281.4029541015625 1298.655029296875 1313.5870361328125 1325.178955078125 1333.8409423828125 1339.6929931640625 1340.4759521484375 1337.9580078125 1343.77001953125 1356.1519775390625 1371.634033203125 1380.9959716796875 1388.7879638671875 1399.010986328125 1408.373046875 1417.135009765625 1421.8070068359375 1427.9090576171875 1437.1109619140625 1442.2530517578125 1454.125 1463.8280029296875 1468.7099609375 1477.9420166015625 1491.7139892578125 1501.35595703125 1513.3179931640625 1529.3900146484375 1546.4830322265625 1559.655029296875 1570.197021484375 1579.26904296875 1579.26904296875 1589.1309814453125 1597.282958984375 1612.2449951171875 1623.14697265625 1631.9300537109375 1636.56201171875 1639.583984375 1639.9759521484375 1643.18798828125 1653.18994140625 1662.302001953125 1671.9949951171875 1685.737060546875 1694.279052734375 1701.449951171875 1711.4110107421875 1726.281982421875 1738.3819580078125 1746.782958984375 1753.56396484375 1760.9849853515625 1771.14599609375 1788.2869873046875 1807.22802734375 1835.5489501953125 1864.529052734375 1890.06005859375 1915.260986328125 1951.6920166015625 1977.2030029296875 2007.4139404296875 2033.594970703125 2056.2451171875 2076.256103515625 2098.537109375 2122.028076171875 2145.37890625 2157.219970703125 2165.660888671875 2168.882080078125 2170.221923828125 2168.43310546875
-9999 -9999 -9999 -9999 -9999 -9999 -9999 -9999 2331.364990234375 2313.715087890625 2293.14599609375 2270.02587890625 2246.116943359375 2227.008056640625 2206.7880859375 2186.868896484375 2164.6689453125 2145.56005859375 2129.291015625 2110.37109375 2093.882080078125 2074.133056640625 2056.14306640625 2040.9539794921875 2023.654052734375 2005.074951171875 1988.2259521484375 1970.3160400390625 1951.1669921875 1932.947021484375 1916.72802734375 1899.4189453125 1880.47900390625 1861.699951171875 1841.7509765625 1825.531005859375 1815.08203125 1800.822021484375 1776.6829833984375 1759.1240234375 1746.884033203125 1732.7950439453125 1717.2159423828125 1702.5560302734375 1688.0770263671875 1675.95703125 1667.5179443359375 1653.0989990234375 1637.468994140625 1625.800048828125 1613.0699462890625 1610.3509521484375 1604.261962890625 1599.6319580078125 1596.4530029296875 1589.2939453125 1579.134033203125 1571.594970703125 1558.324951171875 1544.345947265625 1520.89697265625 1499.9969482421875 1499.47802734375 1486.93798828125 1472.708984375 1472.7099609375 1462.739990234375 1446.8409423828125 1438.08203125 1427.35205078125 1412.4229736328125 1391.802978515625 1373.634033203125 1353.7950439453125 1336.5250244140625 1315.906005859375 1300.9759521484375 1279.927978515625 1266.9510498046875 1244.4530029296875 1251.7750244140625 1261.427001953125 1262.1280517578125 1254.3499755859375 1234.77197265625 1214.5050048828125 1196.7569580078125 1179.239013671875 1166.4010009765625 1152.343017578125 1137.675048828125 1130.9169921875 1120.530029296875 1105.1820068359375 1085.7039794921875 1080.3260498046875 1075.8079833984375 1080.75 1081.592041015625 1083.803955078125 1090.3370361328125 1102.5589599609375 1113.6710205078125 1122.2430419921875 1128.625 1135.0169677734375 1152.1490478515625 1171.4520263671875 1176.4840087890625 1175.926025390625 1195.3480224609375 1205.280029296875 1215.3819580078125 1231.323974609375 1245.8170166015625 1263.3089599609375 1277.7110595703125 1288.4029541015625 1300.9949951171875 1311.8370361328125 1321.5789794921875 1329.4210205078125 1331.614013671875 1329.7559814453125 1334.91796875 1349.4000244140625 1360.8819580078125 1369.573974609375 1378.696044921875 1388.468994140625 1395.56103515625 1403.9730224609375 1410.7049560546875 1420.0670166015625 1422.93896484375 1430.4310302734375 1438.363037109375 1448.196044921875 1461.137939453125 1464.280029296875 1468.4320068359375 1479.2840576171875 1494.666015625 1505.5379638671875 1516.051025390625 1530.29296875 1550.1650390625 1562.18701171875 1573.779052734375 1573.779052734375 1586.010986328125 1593.4429931640625 1604.7449951171875 1617.1080322265625 1623.3599853515625 1623.741943359375 1627.89404296875 1632.865966796875 1639.0379638671875 1648.0699462890625 1655.552001953125 1664.2750244140625 1672.8570556640625 1683.8890380859375 1695.050048828125 1705.071044921875 1720.4420166015625 1730.373046875 1737.4329833984375 1745.073974609375 1751.7950439453125 1762.676025390625 1779.217041015625 1801.998046875 1833.1190185546875 1854.4300537109375 1881.3800048828125 1907.23095703125 1937.85205078125 1966.282958984375 1991.823974609375 2022.2850341796875 2042.7960205078125 2064.376953125 2086.537109375 2119.657958984375 2137.6689453125 2151.219970703125 2160.131103515625 2164.19189453125 2165.873046875 2164.1240234375
