ncols        268
nrows        21
xllcorner    638692
yllcorner    5125408
cellsize     30.000000000000
NODATA_value  -9999
-9999 -9999 -9999 -9999 -9999 -9999 -9999 -9999 -9999 -9999 -9999 -9999 -9999 -9999 -9999 -9999 -9999 -9999 -9999 -9999 -9999 -9999 -9999 -9999 -9999 -9999 -9999 -9999 -9999 -9999 -9999 -9999 2246.906982421875 2230.06591796875 2221.594970703125 2216.577880859375 2225.7490234375 2217.802001953125 2200.325927734375 2188.889892578125 2172.010009765625 2164.407958984375 2155.571044921875 2148.839111328125 2131.613037109375 2112.743896484375 2106.47607421875 2107.93798828125 2106.22998046875 2106.302001953125 2111.212890625 2109.534912109375 2113.217041015625 2110.888916015625 2105.531005859375 2096.3720703125 2088.60400390625 2083.26611328125 2083.68798828125 2097.6689453125 2108.19091796875 2110.153076171875 2110.514892578125 2106.886962890625 2109.248046875 2111.760009765625 2116.552001953125 2112.25390625 2115.0458984375 2119.737060546875 2123.97900390625 2127.73095703125 2128.423095703125 2128.10498046875 2130.365966796875 2132.568115234375 2129.070068359375 2118.931884765625 2104.843017578125 2092.43505859375 2083.797119140625 2078.09912109375 2073.44091796875 2064.52197265625 2050.283935546875 2036.8160400390625 2027.177001953125 2019.3890380859375 2011.780029296875 2003.301025390625 1994.1419677734375 1986.5340576171875 1979.35498046875 1967.926025390625 1955.697021484375 1943.458984375 1933.06005859375 1923.321044921875 1911.7220458984375 1901.583984375 1894.2650146484375 1887.3360595703125 1877.427001953125 1867.948974609375 1859.31005859375 1848.4610595703125 1840.31201171875 1833.14404296875 1823.5550537109375 1815.2259521484375 1805.636962890625 1795.1290283203125 1784.8699951171875 1776.8409423828125 1771.4420166015625 1773.9139404296875 1776.7550048828125 1774.2159423828125 1766.656982421875 1754.009033203125 1742.949951171875 1738.8310546875 1732.6820068359375 1722.1929931640625 1711.0450439453125 1698.7760009765625 1686.0269775390625 1674.0279541015625 1666.1300048828125 1661.041015625 1656.1619873046875 1650.52294921875 1644.39501953125 1636.7960205078125 1631.116943359375 1624.14794921875 1619.4100341796875 1614.470947265625 1608.2220458984375 1599.863037109375 1593.7149658203125 1585.7559814453125 1579.97705078125 1571.9580078125 1564.260009765625 1554.8709716796875 1547.3719482421875 1539.012939453125 1529.6949462890625 1522.156005859375 1517.906982421875 1513.5980224609375 1506.0789794921875 1500.7010498046875 1501.531982421875 1498.613037109375 1494.1839599609375 1489.2060546875 1483.947021484375 1478.2679443359375 1471.029052734375 1466.6910400390625 1461.862060546875 1449.552978515625 1432.614013671875 1412.60595703125 1398.5670166015625 1389.68798828125 1375.2490234375 1362.9210205078125 1349.052001953125 1341.1429443359375 1336.0849609375 1332.18603515625 1317.89794921875 1317.7889404296875 1332.6700439453125 1331.862060546875 1341.532958984375 1353.4849853515625 1372.5059814453125 1390.718017578125 1423.43896484375 1452.220947265625 1482.8819580078125 1522.833984375 1537.7049560546875 1577.3170166015625 1590.988037109375 1611.5999755859375 1629.321044921875 1643.322021484375 1662.06396484375 1684.364990234375 1712.0369873046875 1735.1080322265625 1786.300048828125 1818.0810546875 1854.052978515625 1886.134033203125 1907.166015625 1947.0069580078125 1961.72900390625 1991.050048828125 2034.35205078125 2065.552978515625 2091.7041015625 2100.805908203125 2121.2470703125 2129.2490234375 2077.72998046875 2019.6219482421875 2066.653076171875 2097.155029296875 2121.535888671875 2050.0380859375 2032.948974609375 2047.220947265625 2063.5419921875 2098.833984375 2141.695068359375 2190.037109375 2256.447998046875 2266.3798828125 2328.291015625 2368.9619140625 2399.35400390625 2342.235107421875 2276.037109375 2219.847900390625 2133.580078125 2113.1708984375 2097.9130859375 2092.7041015625 2090.365966796875 2089.717041015625 2092.279052734375 2099.6298828125 2125.06201171875 2148.302978515625 2167.5048828125 2187.6259765625 2256.68798828125 2307.529052734375 2312.27001953125 2327.6708984375 2346.032958984375 2364.7041015625 2413.236083984375 2427.947021484375 2431.819091796875 2457.699951171875 2447.431884765625 2450.452880859375 2452.7548828125 2463.10595703125 2471.998046875 2478.37890625 2483.1708984375 2492.39306640625 2516.0849609375 2544.636962890625 2545.7099609375 2547.382080078125 2555.56396484375 2555.81591796875 2560.80810546875 2565.800048828125
-9999 -9999 -9999 -9999 -9999 -9999 -9999 -9999 -9999 -9999 -9999 -9999 -9999 -9999 -9999 -9999 -9999 -9999 -9999 -9999 -9999 -9999 -9999 -9999 -9999 -9999 -9999 -9999 -9999 -9999 -9999 -9999 2245.341064453125 2228.173095703125 2213.944091796875 2207.3759765625 2214.657958984375 2203.7099609375 2190.06201171875 2183.31298828125 2169.5048828125 2167.14697265625 2158.5791015625 2150.510009765625 2134.35205078125 2110.25390625 2103.135986328125 2100.3779296875 2102.59912109375 2102.1708984375 2106.992919921875 2101.85498046875 2104.5869140625 2106.008056640625 2096.10009765625 2087.662109375 2079.6240234375 2076.075927734375 2080.2470703125 2095.60888671875 2104.98095703125 2105.012939453125 2104.7041015625 2103.1259765625 2102.76806640625 2104.080078125 2109.77197265625 2105.48291015625 2108.22509765625 2112.527099609375 2116.59912109375 2121.240966796875 2121.971923828125 2122.39404296875 2122.256103515625 2126.248046875 2123.6201171875 2115.7509765625 2104.193115234375 2091.6650390625 2083.626953125 2077.10791015625 2073.280029296875 2067.092041015625 2056.27392578125 2043.68603515625 2035.3070068359375 2024.0980224609375 2015.47900390625 2006.1910400390625 1996.511962890625 1988.572998046875 1980.7039794921875 1969.39599609375 1959.3270263671875 1947.137939453125 1936.3690185546875 1925.8609619140625 1915.241943359375 1904.343017578125 1896.884033203125 1888.8759765625 1879.467041015625 1870.0479736328125 1861.3890380859375 1852.06103515625 1841.9820556640625 1833.5830078125 1824.343994140625 1814.60595703125 1805.7769775390625 1794.738037109375 1782.3289794921875 1774.52099609375 1771.011962890625 1769.85302734375 1771.9639892578125 1770.696044921875 1765.7869873046875 1754.8480224609375 1744.6689453125 1741.1510009765625 1733.08203125 1723.0830078125 1712.10400390625 1698.5560302734375 1685.5870361328125 1673.447998046875 1667.0989990234375 1661.3509521484375 1657.241943359375 1651.6929931640625 1645.073974609375 1636.8050537109375 1631.5369873046875 1625.3480224609375 1619.7889404296875 1615.3199462890625 1610.552001953125 1603.623046875 1595.2340087890625 1587.7550048828125 1581.1669921875 1575.0980224609375 1566.4990234375 1557.5999755859375 1550.4720458984375 1540.85302734375 1531.573974609375 1524.4449462890625 1519.0870361328125 1514.387939453125 1508.8089599609375 1505.4000244140625 1504.9110107421875 1502.383056640625 1497.4239501953125 1492.4449462890625 1486.1259765625 1479.5279541015625 1472.958984375 1468.1500244140625 1463.81103515625 1453.123046875 1435.14404296875 1419.43505859375 1403.7060546875 1393.0179443359375 1380.029052734375 1368.43994140625 1352.970947265625 1341.572998046875 1337.114013671875 1327.43603515625 1317.7889404296875 1324.748046875 1343.68994140625 1343.321044921875 1350.4930419921875 1358.9339599609375 1369.18603515625 1383.3370361328125 1404.708984375 1439.9300537109375 1476.781982421875 1504.302978515625 1527.2449951171875 1556.2159423828125 1581.907958984375 1604.3189697265625 1616.52099609375 1632.85205078125 1657.2330322265625 1683.0250244140625 1710.156005859375 1735.0679931640625 1786.1590576171875 1810.8809814453125 1846.261962890625 1879.654052734375 1905.4649658203125 1936.6070556640625 1960.3380126953125 1995.2099609375 2029.6710205078125 2069.123046875 2110.303955078125 2118.946044921875 2131.846923828125 2135.327880859375 2086.590087890625 2036.571044921875 2070.77294921875 2114.18408203125 2132.416015625 2084.846923828125 2045.1090087890625 2055.489990234375 2069.89208984375 2090.012939453125 2127.514892578125 2168.885986328125 2240.837890625 2244.87890625 2318.881103515625 2361.912109375 2400.083984375 2342.715087890625 2295.39599609375 2222.657958984375 2135.26904296875 2116.200927734375 2104.251953125 2095.73388671875 2090.594970703125 2089.717041015625 2090.867919921875 2095.340087890625 2115.9208984375 2146.1630859375 2167.424072265625 2184.8759765625 2231.787109375 2314.80908203125 2322.7890625 2333.930908203125 2345.552001953125 2357.093994140625 2376.885009765625 2402.886962890625 2404.91796875 2434.800048828125 2453.430908203125 2451.29296875 2454.444091796875 2462.595947265625 2472.2470703125 2480.589111328125 2485.950927734375 2495.512939453125 2523.205078125 2550.18701171875 2551.12890625 2553.9609375 2563.262939453125 2562.666015625 2566.248046875 2570.239990234375
-9999 -9999 -9999 -9999 -9999 -9999 -9999 -9999 -9999 -9999 -9999 -9999 -9999 -9999 -9999 -9999 -9999 -9999 -9999 -9999 -9999 -9999 -9999 -9999 -9999 -9999 -9999 -9999 -9999 -9999 -9999 2246.367919921875 2244.360107421875 2220.221923828125 2204.48388671875 2193.986083984375 2194.51708984375 2180.908935546875 2171.131103515625 2166.48291015625 2164.655029296875 2160.305908203125 2157.367919921875 2148.590087890625 2132.092041015625 2110.222900390625 2097.175048828125 2091.987060546875 2092.339111328125 2094.37109375 2092.3720703125 2095.60400390625 2092.49609375 2089.447998046875 2085.050048828125 2078.821044921875 2067.593017578125 2063.264892578125 2075.51708984375 2086.62890625 2093.4599609375 2090.7119140625 2095.22412109375 2092.56591796875 2094.26708984375 2090.468994140625 2090.571044921875 2090.153076171875 2090.784912109375 2098.785888671875 2102.087890625 2104.25 2104.06201171875 2105.154052734375 2105.485107421875 2109.6669921875 2111.989013671875 2109.071044921875 2100.402099609375 2089.323974609375 2080.0458984375 2073.72802734375 2070.159912109375 2065.781005859375 2059.202880859375 2050.364990234375 2040.3360595703125 2033.218017578125 2022.029052734375 2010.8299560546875 2000.970947265625 1989.6429443359375 1979.2340087890625 1972.3050537109375 1962.7459716796875 1950.758056640625 1941.2989501953125 1930.3199462890625 1916.9010009765625 1906.2230224609375 1898.134033203125 1891.2550048828125 1881.6259765625 1874.5279541015625 1867.239013671875 1856.6600341796875 1847.0009765625 1834.281982421875 1823.7340087890625 1814.0150146484375 1806.0260009765625 1794.5169677734375 1780.5489501953125 1770.31005859375 1768.6610107421875 1767.4019775390625 1765.81396484375 1763.81494140625 1761.0260009765625 1755.427001953125 1747.3389892578125 1741.6500244140625 1733.7010498046875 1722.1419677734375 1709.864013671875 1697.0550537109375 1684.115966796875 1673.39697265625 1666.8890380859375 1661.739990234375 1657.051025390625 1653.1519775390625 1645.02294921875 1641.06494140625 1634.446044921875 1627.3170166015625 1622.008056640625 1616.1300048828125 1610.510986328125 1605.2320556640625 1598.10302734375 1591.06494140625 1585.135986328125 1576.8370361328125 1570.157958984375 1562.02001953125 1554.0909423828125 1544.2120361328125 1534.10302734375 1526.155029296875 1521.0059814453125 1517.3270263671875 1512.177978515625 1511.458984375 1510.801025390625 1508.261962890625 1502.10302734375 1495.6639404296875 1491.166015625 1483.8470458984375 1476.39794921875 1470.958984375 1466.010986328125 1451.9720458984375 1431.7530517578125 1415.303955078125 1401.7459716796875 1393.0570068359375 1379.157958984375 1369.279052734375 1357.321044921875 1348.1619873046875 1338.9329833984375 1323.2449951171875 1326.5860595703125 1340.7779541015625 1352.1290283203125 1356.1510009765625 1365.6719970703125 1372.5040283203125 1382.10498046875 1396.4759521484375 1424.6180419921875 1452.1490478515625 1482.6409912109375 1482.27197265625 1512.654052734375 1544.5550537109375 1560.7769775390625 1599.407958984375 1624.489990234375 1641.4010009765625 1664.2430419921875 1690.9239501953125 1717.43603515625 1750.2969970703125 1791.8590087890625 1815.77001953125 1841.6209716796875 1874.6529541015625 1900.803955078125 1937.43603515625 1953.2969970703125 1992.8590087890625 2037.9100341796875 2084.3720703125 2119.64306640625 2140.675048828125 2155.99609375 2150.18798828125 2104.319091796875 2063.87109375 2094.23193359375 2133.52392578125 2155.324951171875 2120.14697265625 2086.238037109375 2074.260009765625 2088.091064453125 2101.802001953125 2118.1640625 2148.824951171875 2203.126953125 2239.72802734375 2301.909912109375 2354.8310546875 2413.962890625 2365.694091796875 2313.756103515625 2243.72705078125 2142.18896484375 2126.14990234375 2113.60205078125 2100.153076171875 2089.717041015625 2089.717041015625 2089.717041015625 2089.717041015625 2103.1708984375 2119.31201171875 2152.884033203125 2186.034912109375 2220.785888671875 2245.76806640625 2315.64892578125 2326.5400390625 2335.85205078125 2346.072998046875 2361.60498046875 2377.5859375 2385.597900390625 2403.408935546875 2427.410888671875 2445.031982421875 2453.944091796875 2460.735107421875 2466.60693359375 2470.9580078125 2485.280029296875 2502.781982421875 2520.3740234375 2560.325927734375 2561.819091796875 2561.031005859375 2570.822998046875 2572.514892578125 2576.287109375 2579.12890625
-9999 -9999 -9999 -9999 -9999 -9999 -9999 -9999 -9999 -9999 -9999 -9999 -9999 -9999 -9999 -9999 -9999 -9999 -9999 -9999 -9999 -9999 -9999 -9999 -9999 -9999 -9999 -9999 -9999 2239.52392578125 2240.49609375 2235.798095703125 2230.070068359375 2218.02099609375 2203.012939453125 2186.284912109375 2179.39697265625 2170.3291015625 2161.27001953125 2150.451904296875 2149.8740234375 2150.416015625 2151.847900390625 2142.888916015625 2127.52099609375 2109.64306640625 2094.43505859375 2087.0458984375 2083.05810546875 2086.35009765625 2085.1220703125 2083.31396484375 2082.47509765625 2080.31689453125 2074.4990234375 2067.430908203125 2058.212890625 2057.56396484375 2066.89599609375 2074.818115234375 2075.030029296875 2078.001953125 2077.992919921875 2081.6650390625 2080.56689453125 2078.458984375 2076.669921875 2076.1220703125 2076.60400390625 2079.89599609375 2084.318115234375 2086.638916015625 2085.031005859375 2085.462890625 2088.5849609375 2091.467041015625 2096.2880859375 2097.93994140625 2092.862060546875 2083.924072265625 2073.554931640625 2068.70703125 2064.9189453125 2061.7509765625 2057.44189453125 2050.583984375 2041.595947265625 2035.866943359375 2029.0880126953125 2018.22998046875 2008.470947265625 1996.9019775390625 1983.7330322265625 1972.083984375 1964.135986328125 1952.8470458984375 1945.2679443359375 1930.6490478515625 1918.52099609375 1908.56201171875 1900.04296875 1894.6739501953125 1887.2659912109375 1880.7469482421875 1872.637939453125 1861.0689697265625 1849.071044921875 1835.531982421875 1822.2030029296875 1812.6739501953125 1804.3060302734375 1794.4969482421875 1780.2679443359375 1770.3690185546875 1767.550048828125 1766.6619873046875 1763.35302734375 1760.303955078125 1757.875 1752.8470458984375 1747.22802734375 1738.6689453125 1728.06005859375 1717.4720458984375 1705.593017578125 1693.073974609375 1681.1650390625 1672.3070068359375 1665.3280029296875 1661.739013671875 1656.6400146484375 1649.741943359375 1649.5830078125 1644.2540283203125 1637.81494140625 1630.196044921875 1623.718017578125 1619.01904296875 1613.6400146484375 1607.1710205078125 1600.843017578125 1594.2840576171875 1588.635009765625 1580.2960205078125 1572.907958984375 1564.8990478515625 1556.0400390625 1546.220947265625 1534.6920166015625 1528.4840087890625 1523.4549560546875 1519.60595703125 1518.217041015625 1516.47900390625 1516.22998046875 1513.8809814453125 1508.342041015625 1500.8740234375 1494.2349853515625 1487.4859619140625 1480.177001953125 1473.698974609375 1467.010009765625 1451.041015625 1433.4620361328125 1415.6939697265625 1400.0150146484375 1390.0560302734375 1379.3270263671875 1369.9580078125 1360.3900146484375 1351.281005859375 1340.491943359375 1325.7239990234375 1335.135009765625 1344.487060546875 1352.0579833984375 1354.43994140625 1354.3409423828125 1360.2330322265625 1373.14404296875 1403.2159423828125 1443.156982421875 1461.7889404296875 1491.0999755859375 1519.7320556640625 1539.552978515625 1559.7440185546875 1569.196044921875 1618.5069580078125 1618.8890380859375 1641.6500244140625 1663.1820068359375 1688.032958984375 1717.3050537109375 1744.095947265625 1781.508056640625 1805.3289794921875 1824.8709716796875 1855.572021484375 1891.0439453125 1915.1949462890625 1945.366943359375 1978.91796875 2030.22998046875 2082.180908203125 2096.06298828125 2125.56396484375 2147.89501953125 2167.257080078125 2137.01806640625 2108.169921875 2109.44091796875 2142.693115234375 2187.174072265625 2189.77587890625 2200.06689453125 2226.2890625 2104.35009765625 2115.1220703125 2130.7529296875 2145.784912109375 2199.2958984375 2225.43798828125 2314.218994140625 2352.39111328125 2424.652099609375 2396.214111328125 2315.235107421875 2256.866943359375 2153.197998046875 2136.530029296875 2119.841064453125 2104.681884765625 2092.783935546875 2089.717041015625 2089.717041015625 2089.717041015625 2091.5400390625 2102.94091796875 2123.212890625 2142.904052734375 2194.8359375 2229.556884765625 2249.10791015625 2319.739990234375 2334.69091796875 2350.633056640625 2363.174072265625 2371.4560546875 2381.45703125 2399.339111328125 2410.570068359375 2432.662109375 2444.722900390625 2462.0048828125 2473.446044921875 2479.876953125 2490.1201171875 2504.072021484375 2519.3740234375 2555.345947265625 2560.51806640625 2562.360107421875 2576.302001953125 2579.8740234375 2587.49609375 2594.049072265625
-9999 -9999 -9999 -9999 -9999 -9999 -9999 -9999 -9999 -9999 -9999 -9999 -9999 -9999 -9999 -9999 -9999 -9999 -9999 -9999 -9999 -9999 -9999 -9999 -9999 -9999 -9999 -9999 2227.092041015625 2231.884033203125 2228.7060546875 2220.906982421875 2213.0791015625 2204.9208984375 2204.883056640625 2180.77392578125 2169.22607421875 2166.068115234375 2156.280029296875 2145.14208984375 2142.383056640625 2138.93505859375 2141.3369140625 2133.658935546875 2120.52099609375 2110.02197265625 2086.02392578125 2077.716064453125 2075.66796875 2075.989013671875 2075.950927734375 2075.123046875 2075.574951171875 2075.22705078125 2064.697998046875 2055.56005859375 2050.412109375 2055.263916015625 2058.095947265625 2061.056884765625 2060.529052734375 2060.410888671875 2063.633056640625 2063.50390625 2063.2060546875 2062.587890625 2064.010009765625 2059.302001953125 2063.113037109375 2064.344970703125 2067.156982421875 2067.76904296875 2066.010986328125 2065.741943359375 2069.8740234375 2074.406005859375 2080.488037109375 2081.408935546875 2077.160888671875 2070.452880859375 2066.215087890625 2061.806884765625 2057.0380859375 2055.510009765625 2053.48193359375 2048.56396484375 2041.1650390625 2035.4560546875 2029.16796875 2023.26904296875 2013.949951171875 2001.06103515625 1989.593017578125 1975.7640380859375 1967.68505859375 1958.2159423828125 1950.3380126953125 1937.708984375 1925.9200439453125 1915.8709716796875 1906.7130126953125 1899.14404296875 1891.9949951171875 1885.166015625 1878.906982421875 1867.678955078125 1851.550048828125 1836.301025390625 1822.302001953125 1810.9239501953125 1801.68505859375 1790.865966796875 1780.0970458984375 1773.029052734375 1769.3699951171875 1768.02099609375 1763.56201171875 1759.6839599609375 1755.614990234375 1749.885986328125 1742.2869873046875 1734.508056640625 1723.8399658203125 1712.4210205078125 1700.33203125 1688.623046875 1678.885009765625 1669.365966796875 1665.5069580078125 1662.5179443359375 1657.1400146484375 1656.531005859375 1650.552001953125 1647.3330078125 1639.1240234375 1631.9859619140625 1626.447021484375 1621.718017578125 1615.93896484375 1610.1009521484375 1603.6719970703125 1597.06298828125 1590.303955078125 1582.196044921875 1574.2969970703125 1567.1080322265625 1560.0989990234375 1547.550048828125 1536.77197265625 1529.9029541015625 1526.60400390625 1521.844970703125 1522.2869873046875 1522.1080322265625 1523.029052734375 1520.510009765625 1512.6920166015625 1503.6429443359375 1496.593994140625 1490.594970703125 1483.2669677734375 1476.508056640625 1468.2889404296875 1452.02001953125 1433.1109619140625 1414.27294921875 1399.343994140625 1390.7850341796875 1380.8160400390625 1372.5579833984375 1362.529052734375 1352.1700439453125 1341.4820556640625 1331.1829833984375 1332.2740478515625 1338.385986328125 1342.427001953125 1347.26904296875 1354.68994140625 1368.81201171875 1384.093017578125 1404.8050537109375 1445.2659912109375 1490.7779541015625 1507.7989501953125 1544.0810546875 1556.6319580078125 1574.2440185546875 1595.594970703125 1635.967041015625 1636.758056640625 1647.7900390625 1670.4510498046875 1692.04296875 1717.7640380859375 1743.8349609375 1762.697021484375 1786.5880126953125 1817.5400390625 1842.5009765625 1873.10302734375 1903.6639404296875 1935.9959716796875 1969.487060546875 2014.97900390625 2049.530029296875 2108.89208984375 2130.762939453125 2152.675048828125 2181.236083984375 2163.798095703125 2133.489013671875 2143.0009765625 2205.23193359375 2257.944091796875 2253.304931640625 2252.277099609375 2343.80810546875 2268.1201171875 2137.510986328125 2146.29296875 2190.583984375 2206.534912109375 2222.787109375 2309.66796875 2363.1298828125 2422.14111328125 2367.472900390625 2318.843994140625 2285.10595703125 2161.306884765625 2141.388916015625 2126.1298828125 2112.112060546875 2100.222900390625 2093.195068359375 2089.717041015625 2089.717041015625 2091.458984375 2099.10107421875 2113.73193359375 2126.89404296875 2128.3349609375 2226.447021484375 2270.51806640625 2332.448974609375 2338.821044921875 2361.031982421875 2374.383056640625 2382.804931640625 2394.31591796875 2407.847900390625 2421.4189453125 2435.041015625 2448.072021484375 2466.14404296875 2479.175048828125 2486.6669921875 2497.5791015625 2507.37109375 2515.48291015625 2527.215087890625 2551.116943359375 2563.929931640625 2582.94189453125 2586.4541015625 2596.555908203125 2608.157958984375
-9999 -9999 -9999 -9999 -9999 -9999 -9999 -9999 -9999 -9999 -9999 -9999 -9999 -9999 -9999 -9999 -9999 -9999 -9999 -9999 -9999 -9999 -9999 -9999 -9999 -9999 2245.577880859375 2230.199951171875 2221.010986328125 2219.623046875 2216.9951171875 2209.35693359375 2202.43896484375 2193.780029296875 2190.412109375 2171.493896484375 2160.76611328125 2155.376953125 2145.09912109375 2144.23095703125 2135.04296875 2132.0849609375 2131.39599609375 2123.097900390625 2108.840087890625 2095.7919921875 2078.303955078125 2068.284912109375 2066.277099609375 2065.678955078125 2067.490966796875 2063.58203125 2061.31396484375 2059.305908203125 2054.197998046875 2048.77001953125 2048.64111328125 2051.7529296875 2047.7149658203125 2042.136962890625 2040.3690185546875 2040.1400146484375 2041.511962890625 2044.154052734375 2049.006103515625 2052.487060546875 2047.3389892578125 2044.9310302734375 2044.383056640625 2045.0550537109375 2047.18603515625 2048.177978515625 2048.330078125 2049.362060546875 2052.22412109375 2057.10498046875 2062.9169921875 2063.759033203125 2061.791015625 2060.02197265625 2058.964111328125 2054.575927734375 2050.347900390625 2047.3489990234375 2045.970947265625 2044.56298828125 2038.85498046875 2033.0460205078125 2028.0469970703125 2021.258056640625 2013.949951171875 2004.23095703125 1992.281982421875 1981.302978515625 1971.9339599609375 1964.2559814453125 1954.5870361328125 1940.8480224609375 1929.1090087890625 1920.3609619140625 1913.52197265625 1904.9029541015625 1899.154052734375 1892.4959716796875 1885.386962890625 1872.5880126953125 1855.3590087890625 1837.8699951171875 1822.781982421875 1811.6929931640625 1800.1939697265625 1790.9449462890625 1782.366943359375 1777.3780517578125 1771.8089599609375 1769.4200439453125 1765.7120361328125 1760.9730224609375 1756.9139404296875 1752.2550048828125 1742.5970458984375 1730.5379638671875 1719.6390380859375 1707.5400390625 1695.6510009765625 1684.7430419921875 1676.154052734375 1668.4849853515625 1665.666015625 1664.887939453125 1661.529052734375 1655.280029296875 1654.98095703125 1649.7030029296875 1641.6639404296875 1634.5250244140625 1628.4859619140625 1623.8170166015625 1618.0489501953125 1610.43994140625 1604.031005859375 1599.06201171875 1592.5340576171875 1584.0849609375 1575.9560546875 1570.5770263671875 1562.43798828125 1549.4200439453125 1538.240966796875 1531.822021484375 1528.123046875 1525.1650390625 1526.43603515625 1528.22705078125 1528.93798828125 1524.469970703125 1516.56103515625 1506.9119873046875 1500.54296875 1494.134033203125 1487.406005859375 1478.70703125 1469.1280517578125 1449.3590087890625 1430.301025390625 1413.1219482421875 1400.572998046875 1391.4539794921875 1384.0360107421875 1374.197021484375 1363.5980224609375 1352.93896484375 1340.051025390625 1331.1829833984375 1336.1939697265625 1340.905029296875 1342.0770263671875 1348.447998046875 1356.1099853515625 1372.9610595703125 1381.491943359375 1409.154052734375 1451.43505859375 1497.3570556640625 1523.93798828125 1555.81005859375 1601.291015625 1617.012939453125 1614.6939697265625 1645.60595703125 1655.967041015625 1662.0789794921875 1676.6600341796875 1693.9119873046875 1720.343017578125 1748.7750244140625 1776.345947265625 1798.7779541015625 1823.739013671875 1852.31103515625 1886.842041015625 1917.9539794921875 1948.114990234375 1980.987060546875 2002.677978515625 2036.06005859375 2101.010986328125 2127.673095703125 2150.31396484375 2185.715087890625 2194.556884765625 2155.47802734375 2178.679931640625 2222.73095703125 2273.262939453125 2266.763916015625 2317.3759765625 2371.31689453125 2324.448974609375 2263.860107421875 2191.58203125 2178.363037109375 2220.054931640625 2236.93603515625 2295.568115234375 2354.3291015625 2389.760986328125 2434.052001953125 2408.783935546875 2319.205078125 2182.096923828125 2150.2080078125 2135.050048828125 2121.06103515625 2109.593017578125 2101.513916015625 2092.216064453125 2089.7470703125 2093.299072265625 2096.760009765625 2099.241943359375 2109.512939453125 2123.264892578125 2209.196044921875 2236.947021484375 2296.55810546875 2325.4599609375 2360.281005859375 2387.462890625 2417.134033203125 2426.10595703125 2431.3369140625 2438.458984375 2452.0400390625 2463.251953125 2474.822998046875 2486.824951171875 2497.89599609375 2508.7080078125 2513.840087890625 2519.302978515625 2525.445068359375 2537.537109375 2564.069091796875 2586.9208984375 2591.443115234375 2599.344970703125 2615.85693359375
-9999 -9999 -9999 -9999 -9999 -9999 -9999 -9999 -9999 -9999 -9999 -9999 -9999 -9999 -9999 -9999 -9999 -9999 -9999 -9999 -9999 -9999 -9999 -9999 -9999 -9999 2240.60693359375 2223.5390625 2214.930908203125 2214.992919921875 2210.1240234375 2195.8759765625 2194.248046875 2186.510009765625 2174.802001953125 2158.173095703125 2147.0849609375 2141.866943359375 2137.279052734375 2131.27001953125 2121.862060546875 2114.194091796875 2110.285888671875 2108.177978515625 2100.14892578125 2091.341064453125 2074.873046875 2061.794921875 2052.447021484375 2051.137939453125 2056.5 2052.422119140625 2043.1739501953125 2040.2449951171875 2039.8470458984375 2040.948974609375 2048.7509765625 2043.4930419921875 2032.39404296875 2024.2659912109375 2017.8079833984375 2013.6300048828125 2015.9019775390625 2021.802978515625 2026.5350341796875 2029.5069580078125 2028.6190185546875 2026.050048828125 2026.011962890625 2024.573974609375 2028.0660400390625 2030.8280029296875 2030.5489501953125 2032.970947265625 2035.4930419921875 2038.6650390625 2044.666015625 2047.89794921875 2049.800048828125 2051.001953125 2049.6640625 2047.094970703125 2044.6669921875 2041.1190185546875 2040.1009521484375 2038.2120361328125 2035.6839599609375 2030.574951171875 2024.946044921875 2017.8780517578125 2009.1689453125 2001.3599853515625 1993.1009521484375 1984.512939453125 1977.384033203125 1966.925048828125 1956.906005859375 1945.738037109375 1937.6390380859375 1929.77001953125 1921.970947265625 1916.092041015625 1908.904052734375 1899.2950439453125 1891.196044921875 1876.95703125 1859.958984375 1843.449951171875 1826.4210205078125 1813.552001953125 1801.1739501953125 1790.9449462890625 1784.8360595703125 1779.2569580078125 1774.8380126953125 1772.6700439453125 1768.3509521484375 1763.8719482421875 1760.9029541015625 1754.5849609375 1742.5660400390625 1727.7569580078125 1716.218017578125 1705.5389404296875 1693.6610107421875 1682.6319580078125 1674.822998046875 1669.384033203125 1667.385986328125 1665.616943359375 1663.887939453125 1660.3489990234375 1657.5810546875 1650.6719970703125 1643.1429443359375 1636.2840576171875 1631.675048828125 1626.197021484375 1619.468017578125 1612.989013671875 1605.81005859375 1599.842041015625 1593.1729736328125 1585.4940185546875 1579.155029296875 1572.64599609375 1562.968017578125 1550.43896484375 1540.8800048828125 1533.98095703125 1530.4029541015625 1529.31396484375 1531.2349853515625 1534.3260498046875 1533.6669921875 1530.509033203125 1519.010009765625 1510.1409912109375 1504.08203125 1498.6939697265625 1491.43505859375 1481.2860107421875 1467.487060546875 1444.239013671875 1427.6700439453125 1411.4410400390625 1401.5419921875 1394.343017578125 1384.10498046875 1373.9959716796875 1363.656982421875 1349.8079833984375 1339.4300537109375 1333.9410400390625 1339.56298828125 1342.5140380859375 1344.5360107421875 1347.116943359375 1354.458984375 1365.300048828125 1382.60205078125 1425.4229736328125 1452.875 1510.0159912109375 1546.89794921875 1568.43896484375 1603.031005859375 1628.261962890625 1637.9940185546875 1656.14501953125 1666.7659912109375 1677.6080322265625 1689.178955078125 1702.8609619140625 1720.052001953125 1743.083984375 1767.885009765625 1801.366943359375 1825.258056640625 1855.800048828125 1881.041015625 1918.4029541015625 1937.303955078125 1966.635986328125 1998.717041015625 2044.18896484375 2111.570068359375 2132.342041015625 2157.202880859375 2194.39501953125 2221.49609375 2198.657958984375 2189.569091796875 2241.861083984375 2274.19189453125 2305.493896484375 2328.905029296875 2368.537109375 2369.218017578125 2316.300048828125 2236.64111328125 2202.282958984375 2225.00390625 2250.666015625 2293.47705078125 2344.319091796875 2375.469970703125 2440.7919921875 2457.613037109375 2359.2939453125 2203.93603515625 2162.22705078125 2144.739013671875 2127.340087890625 2117.73193359375 2109.48291015625 2099.485107421875 2092.446044921875 2093.117919921875 2099.178955078125 2098.821044921875 2101.652099609375 2118.43408203125 2150.2548828125 2187.256103515625 2247.30810546875 2327.47900390625 2361.450927734375 2392.2119140625 2414.4541015625 2443.43505859375 2460.906982421875 2475.10791015625 2479.110107421875 2476.510986328125 2485.802978515625 2493.43408203125 2502.27587890625 2512.157958984375 2521.340087890625 2525.172119140625 2529.68408203125 2537.906005859375 2559.137939453125 2582.989990234375 2594.343017578125 2603.375 2616.797119140625
-9999 -9999 -9999 -9999 -9999 -9999 -9999 -9999 -9999 -9999 -9999 -9999 -9999 -9999 -9999 -9999 -9999 -9999 -9999 -9999 -9999 -9999 -9999 -9999 -9999 2265.044921875 2241.406982421875 2221.64794921875 2215.239990234375 2197.56201171875 2193.714111328125 2182.135986328125 2174.636962890625 2172.299072265625 2152.19091796875 2144.363037109375 2134.705078125 2130.236083984375 2119.318115234375 2110.889892578125 2101.73193359375 2096.56298828125 2094.824951171875 2089.257080078125 2081.718994140625 2073.64111328125 2062.152099609375 2053.02392578125 2041.865966796875 2034.968017578125 2040.6400146484375 2044.4610595703125 2034.54296875 2022.9150390625 2023.22705078125 2033.8280029296875 2036.4599609375 2029.8819580078125 2016.7740478515625 2004.60595703125 1998.0369873046875 1994.3690185546875 1995.1409912109375 1998.60302734375 2002.1939697265625 2004.89599609375 2008.91796875 2006.3599853515625 2004.7919921875 2004.85302734375 2007.9449462890625 2011.987060546875 2014.6390380859375 2016.7110595703125 2019.501953125 2022.1739501953125 2029.426025390625 2033.907958984375 2037.76904296875 2040.5810546875 2040.4429931640625 2039.2650146484375 2037.7259521484375 2035.64794921875 2033.8599853515625 2032.112060546875 2030.0030517578125 2025.864990234375 2021.9859619140625 2014.8470458984375 2006.927978515625 1999.030029296875 1993.1510009765625 1984.33203125 1976.383056640625 1969.4840087890625 1960.3759765625 1949.8170166015625 1941.7080078125 1935.72900390625 1929.071044921875 1921.1619873046875 1914.052978515625 1904.823974609375 1894.135009765625 1881.0369873046875 1864.93798828125 1846.948974609375 1832.0699462890625 1819.85205078125 1807.0030517578125 1794.1739501953125 1787.4849853515625 1781.156982421875 1777.657958984375 1774.259033203125 1772.0899658203125 1767.7509765625 1764.56298828125 1755.333984375 1740.594970703125 1724.845947265625 1712.7979736328125 1702.928955078125 1691.3499755859375 1681.6810302734375 1675.572021484375 1671.053955078125 1669.4449462890625 1667.0860595703125 1664.126953125 1662.97900390625 1659.2099609375 1651.801025390625 1643.822021484375 1638.7030029296875 1632.4150390625 1626.8060302734375 1620.197021484375 1612.8079833984375 1607.1800537109375 1602.4510498046875 1593.342041015625 1587.1629638671875 1581.9639892578125 1575.2860107421875 1563.7869873046875 1552.0479736328125 1542.6190185546875 1534.9510498046875 1533.741943359375 1534.4129638671875 1539.2440185546875 1540.85498046875 1539.68701171875 1533.3780517578125 1522.0689697265625 1512.3900146484375 1507.8919677734375 1501.7430419921875 1492.9639892578125 1481.125 1463.6669921875 1446.008056640625 1429.3590087890625 1413.7900390625 1400.02099609375 1392.56298828125 1384.2239990234375 1370.9150390625 1362.7760009765625 1349.0579833984375 1341.5489501953125 1334.25 1340.842041015625 1343.9329833984375 1344.574951171875 1346.2860107421875 1350.748046875 1362.3790283203125 1380.6309814453125 1430.9019775390625 1459.343994140625 1516.3050537109375 1561.366943359375 1593.3380126953125 1620.9300537109375 1642.051025390625 1655.4329833984375 1664.7239990234375 1673.0059814453125 1684.967041015625 1700.029052734375 1715.4599609375 1731.991943359375 1748.9429931640625 1769.5050048828125 1804.345947265625 1825.47802734375 1849.529052734375 1879.031005859375 1903.1719970703125 1927.4239501953125 1961.56494140625 1999.39697265625 2024.3280029296875 2110.780029296875 2138.81103515625 2162.181884765625 2189.553955078125 2208.965087890625 2214.366943359375 2207.677978515625 2232.3798828125 2259.660888671875 2294.462890625 2311.9541015625 2347.10595703125 2403.0869140625 2365.868896484375 2263.169921875 2229.56201171875 2229.822998046875 2267.43505859375 2306.8359375 2337.798095703125 2391.09912109375 2436.950927734375 2460.31201171875 2353.533935546875 2212.9951171875 2178.136962890625 2146.758056640625 2135 2127.0009765625 2115.68310546875 2106.864013671875 2097.095947265625 2096.576904296875 2100.718994140625 2101.260009765625 2103.531982421875 2111.54296875 2128.81494140625 2151.0859375 2210.0869140625 2265.239013671875 2372.080078125 2390.531982421875 2408.782958984375 2430.81494140625 2466.14599609375 2502.26806640625 2497.489013671875 2497.06103515625 2493.152099609375 2493.0439453125 2496.35498046875 2508.906982421875 2518.68896484375 2522.0810546875 2522.903076171875 2530.615966796875 2549.968017578125 2577.1201171875 2596.652099609375 2604.323974609375 2613.24609375
-9999 -9999 -9999 -9999 -9999 -9999 -9999 -9999 -9999 -9999 -9999 -9999 -9999 -9999 -9999 -9999 -9999 -9999 -9999 -9999 -9999 -9999 -9999 -9999 -9999 2259.2939453125 2238.10595703125 2214.85791015625 2197.1298828125 2186.60107421875 2176.873046875 2167.264892578125 2157.2470703125 2147.158935546875 2141 2124.912109375 2120.194091796875 2115.115966796875 2109.907958984375 2094.37890625 2086.48095703125 2080.4130859375 2072.64501953125 2066.946044921875 2065.35791015625 2059.760009765625 2050.912109375 2039.614013671875 2029.6650390625 2022.197021484375 2019.1290283203125 2024.8310546875 2025.7220458984375 2015.56396484375 2010.885986328125 2017.2979736328125 2022.72998046875 2013.551025390625 2003.4630126953125 1988.5250244140625 1981.22705078125 1976.5889892578125 1976.219970703125 1979.6920166015625 1979.7340087890625 1981.93603515625 1987.5570068359375 1986.739013671875 1985.740966796875 1986.1929931640625 1989.844970703125 1993.666015625 1999.697998046875 2003.8499755859375 2006.552001953125 2008.2230224609375 2012.6949462890625 2019.406982421875 2025.76904296875 2028.3900146484375 2030.011962890625 2029.4840087890625 2029.595947265625 2028.72802734375 2027.8089599609375 2025.9410400390625 2023.0830078125 2020.343994140625 2016.4549560546875 2010.93603515625 2003.89794921875 1995.9189453125 1988.550048828125 1981.1409912109375 1974.4229736328125 1968.5439453125 1961.2850341796875 1953.7559814453125 1944.7469482421875 1939.448974609375 1932.0799560546875 1925.541015625 1917.511962890625 1908.7340087890625 1895.2449951171875 1882.7259521484375 1868.5169677734375 1851.41796875 1839.550048828125 1828.281005859375 1813.83203125 1801.54296875 1791.574951171875 1783.2060546875 1779.1669921875 1775.14794921875 1773.050048828125 1771.9610595703125 1767.491943359375 1757.56298828125 1740.2239990234375 1722.5560302734375 1710.2769775390625 1701.197998046875 1689.8489990234375 1681.3609619140625 1676.2919921875 1673.35302734375 1670.60400390625 1668.4549560546875 1666.677001953125 1664.66796875 1660.029052734375 1651.1199951171875 1645.490966796875 1639.79296875 1634.884033203125 1627.655029296875 1620.095947265625 1612.14794921875 1606.7989501953125 1601.1700439453125 1593.48095703125 1588.511962890625 1583.4639892578125 1576.35498046875 1565.0660400390625 1552.7769775390625 1543.43896484375 1540.260009765625 1538.3809814453125 1540.8819580078125 1544.883056640625 1545.4749755859375 1542.9959716796875 1535.2769775390625 1524.8480224609375 1515.050048828125 1511.9210205078125 1503.781982421875 1494.282958984375 1484.6839599609375 1465.5760498046875 1451.5870361328125 1429.64794921875 1412.6190185546875 1399.9310302734375 1395.552001953125 1389.9329833984375 1372.884033203125 1357.4749755859375 1348.0169677734375 1339.0479736328125 1337.3299560546875 1342.7010498046875 1345.1829833984375 1343.9329833984375 1344.2060546875 1352.677001953125 1364.948974609375 1380.47998046875 1435.4110107421875 1465.6429443359375 1513.154052734375 1547.5260009765625 1581.95703125 1626.8289794921875 1652.0799560546875 1664.2320556640625 1669.6429443359375 1676.4949951171875 1690.0360107421875 1708.16796875 1727.22900390625 1746.1409912109375 1762.7320556640625 1776.85400390625 1799.135009765625 1819.197021484375 1841.3680419921875 1870.449951171875 1899.4410400390625 1921.9530029296875 1956.2340087890625 1978.946044921875 2014.156982421875 2114.529052734375 2141.949951171875 2163.511962890625 2175.623046875 2179.764892578125 2180.47607421875 2191.157958984375 2217.589111328125 2247.611083984375 2277.64208984375 2304.06396484375 2335.344970703125 2365.757080078125 2413.177978515625 2315.949951171875 2284.631103515625 2251.873046875 2299.573974609375 2340.506103515625 2354.636962890625 2371.868896484375 2443.679931640625 2419.162109375 2374.7529296875 2306.695068359375 2191.56591796875 2159.998046875 2148.2490234375 2138.6708984375 2128.302001953125 2117.614013671875 2106.02490234375 2100.81689453125 2104.818115234375 2103.949951171875 2106.930908203125 2109.802978515625 2119.22412109375 2130.804931640625 2162.47607421875 2223.927978515625 2357.6689453125 2384.990966796875 2401.552001953125 2417.243896484375 2440.89501953125 2488.3369140625 2497.318115234375 2495.2900390625 2502.821044921875 2499.9130859375 2497.593994140625 2501.85595703125 2506.4990234375 2512.3310546875 2523.012939453125 2529.7548828125 2541.656982421875 2570.7490234375 2597.94091796875 2605.674072265625 2611.385986328125
-9999 -9999 -9999 -9999 -9999 -9999 -9999 -9999 -9999 -9999 -9999 -9999 -9999 -9999 -9999 -9999 -9999 -9999 -9999 -9999 -9999 -9999 -9999 -9999 2264.761962890625 2247.60400390625 2228.01611328125 2210.81689453125 2193.05908203125 2179.740966796875 2160.972900390625 2151.924072265625 2139.89599609375 2129.16796875 2122.8798828125 2109.7919921875 2099.572998046875 2098.64501953125 2091.156982421875 2075.339111328125 2067.551025390625 2060.001953125 2047.884033203125 2043.7259521484375 2040.3480224609375 2033.8690185546875 2032.8609619140625 2023.593017578125 2016.5450439453125 2011.39697265625 2003.998046875 2007.6600341796875 2012.592041015625 2010.7440185546875 2007.625 2004.197021484375 1999.7490234375 1998.1910400390625 1994.4129638671875 1974.9840087890625 1966.0059814453125 1960.468017578125 1959.6300048828125 1960.592041015625 1961.79296875 1961.135009765625 1962.406982421875 1966.5689697265625 1968.1800537109375 1969.1619873046875 1972.323974609375 1976.916015625 1981.5679931640625 1987.8489990234375 1992.8909912109375 1995.7530517578125 1999.7349853515625 2003.926025390625 2008.947998046875 2013.7900390625 2017.6219482421875 2020.072998046875 2021.2449951171875 2019.7469482421875 2019.1090087890625 2018.3509521484375 2014.9320068359375 2012.762939453125 2009.6949462890625 2005.5560302734375 1999.376953125 1991.248046875 1983.9189453125 1976.1009521484375 1970.1519775390625 1965.4630126953125 1960.6939697265625 1955.3260498046875 1947.7869873046875 1940.5179443359375 1931.8289794921875 1926.0999755859375 1919.10205078125 1910.7130126953125 1894.10400390625 1882.175048828125 1869.656982421875 1856.6080322265625 1846.01904296875 1836.4200439453125 1824.7010498046875 1812.54296875 1800.4940185546875 1789.2750244140625 1781.446044921875 1776.5679931640625 1776.3590087890625 1775.4599609375 1768.7010498046875 1758.322021484375 1739.56396484375 1721.7349853515625 1707.8060302734375 1697.866943359375 1688.239013671875 1681.9300537109375 1677.2509765625 1674.302001953125 1671.27294921875 1669.2550048828125 1668.426025390625 1665.737060546875 1659.5379638671875 1651.8699951171875 1645.791015625 1641.0419921875 1636.873046875 1629.9139404296875 1620.166015625 1610.967041015625 1606.197998046875 1600.739013671875 1595.4000244140625 1589.342041015625 1584.8330078125 1576.06396484375 1563.93505859375 1552.406982421875 1544.8280029296875 1543.7889404296875 1543.77001953125 1545.8909912109375 1550.1629638671875 1549.2039794921875 1546.2449951171875 1537.3260498046875 1526.5679931640625 1519.0889892578125 1514.9200439453125 1507.9210205078125 1495.56201171875 1486.2139892578125 1474.43505859375 1457.2259521484375 1435.89697265625 1416.1090087890625 1401.8800048828125 1391.4210205078125 1383.6920166015625 1370.532958984375 1357.405029296875 1342.9560546875 1340.7769775390625 1342.0889892578125 1343.780029296875 1345.1619873046875 1344.262939453125 1346.905029296875 1355.0760498046875 1369.68798828125 1387.7989501953125 1423.9510498046875 1471.251953125 1512.4339599609375 1545.4649658203125 1580.1070556640625 1633.0780029296875 1657.1500244140625 1668.6910400390625 1673.9029541015625 1680.2540283203125 1694.4959716796875 1713.0770263671875 1733.0589599609375 1755.280029296875 1779.77197265625 1797.81298828125 1814.6949462890625 1830.615966796875 1848.43798828125 1873.8990478515625 1897.551025390625 1919.241943359375 1953.7939453125 1977.074951171875 2044.64599609375 2122.85791015625 2149.1689453125 2150.89111328125 2147.89208984375 2154.114013671875 2155.514892578125 2165.717041015625 2188.85791015625 2227.219970703125 2262.430908203125 2284.173095703125 2317.263916015625 2349.18603515625 2368.51708984375 2356.5390625 2327.8798828125 2315.991943359375 2319.572998046875 2345.784912109375 2365.966064453125 2385.16796875 2463.6689453125 2436.5009765625 2387.162109375 2374.39404296875 2211.135009765625 2180.376953125 2163.597900390625 2152.6298828125 2140.60107421875 2127.85302734375 2113.64404296875 2107.156005859375 2108.237060546875 2110.218994140625 2111.429931640625 2117.5419921875 2121.512939453125 2128.864013671875 2146.426025390625 2164.237060546875 2242.739013671875 2381.570068359375 2391.362060546875 2405.193115234375 2416.7451171875 2457.916015625 2470.26806640625 2463.928955078125 2486.841064453125 2509.162109375 2511.033935546875 2513.075927734375 2520.68798828125 2522.3798828125 2527.281982421875 2526.60400390625 2537.047119140625 2566.89892578125 2588.40087890625 2603.85302734375 2611.4951171875
-9999 -9999 -9999 -9999 -9999 -9999 -9999 -9999 -9999 -9999 -9999 -9999 -9999 -9999 -9999 -9999 -9999 -9999 -9999 -9999 -9999 -9999 2274.758056640625 2261.050048828125 2249.27099609375 2233.242919921875 2216.72509765625 2202.76708984375 2182.9189453125 2166.139892578125 2150.592041015625 2139.803955078125 2127.986083984375 2119.22705078125 2104.2890625 2092.89111328125 2083.48291015625 2077.375 2073.68603515625 2058.528076171875 2051.5400390625 2039.4320068359375 2029.9429931640625 2020.2349853515625 2013.987060546875 2011.029052734375 2013.06103515625 2008.9019775390625 2004.053955078125 1999.3260498046875 1998.447998046875 1996.8699951171875 1996.27099609375 1997.3330078125 2000.614990234375 1998.70703125 1985.97802734375 1988.56005859375 1981.362060546875 1962.06396484375 1952.7459716796875 1946.89697265625 1943.759033203125 1943.73095703125 1944.4530029296875 1945.553955078125 1945.5560302734375 1947.738037109375 1950.5999755859375 1954.2120361328125 1956.4530029296875 1960.385009765625 1967.5069580078125 1974.1290283203125 1978.47998046875 1983.4219970703125 1987.81396484375 1992.9859619140625 1996.47705078125 1999.5589599609375 2005.77099609375 2009.613037109375 2009.89501953125 2010.656005859375 2010.2879638671875 2009.18994140625 2005.9019775390625 2004.0830078125 2001.7239990234375 1997.7750244140625 1993.906005859375 1987.218017578125 1979.708984375 1972.800048828125 1966.8909912109375 1962.7430419921875 1957.4439697265625 1953.2449951171875 1946.5059814453125 1940.4169921875 1933.9090576171875 1925.68994140625 1918.051025390625 1909.4320068359375 1892.863037109375 1880.5050048828125 1871.35595703125 1862.987060546875 1850.947998046875 1840.9300537109375 1831.071044921875 1820.2120361328125 1808.27294921875 1795.864013671875 1785.85595703125 1779.68701171875 1780.5980224609375 1778.0389404296875 1769.73095703125 1756.2320556640625 1736.1729736328125 1719.5040283203125 1706.155029296875 1695.5570068359375 1686.927978515625 1681.8990478515625 1678.5799560546875 1676.27197265625 1671.7530517578125 1669.2540283203125 1667.905029296875 1665.3160400390625 1657.3780517578125 1651.3489990234375 1647.5 1644.52099609375 1637.58203125 1629.0240478515625 1618.864990234375 1610.7760009765625 1605.197021484375 1600.6090087890625 1597.3199462890625 1592.551025390625 1586.7120361328125 1575.56298828125 1564.614990234375 1554.18603515625 1548.47705078125 1546.72802734375 1547.22900390625 1550.2509765625 1553.251953125 1551.873046875 1547.384033203125 1538.6949462890625 1530.5670166015625 1521.7679443359375 1518.448974609375 1510.6500244140625 1497.6519775390625 1487.373046875 1474.6639404296875 1454.675048828125 1437.4560546875 1414.498046875 1401.3690185546875 1394.8900146484375 1384.98095703125 1373.3929443359375 1361.5140380859375 1345.2249755859375 1341.9560546875 1344.407958984375 1345.2989501953125 1346.6810302734375 1348.052001953125 1352.803955078125 1361.9849853515625 1376.136962890625 1393.6080322265625 1425.47998046875 1475.031005859375 1517.843017578125 1555.7840576171875 1586.3759765625 1637.2669677734375 1661.428955078125 1672.9200439453125 1679.6319580078125 1684.262939453125 1697.5050048828125 1715.18603515625 1735.177978515625 1758.8790283203125 1787.9310302734375 1807.6820068359375 1826.884033203125 1843.594970703125 1860.886962890625 1880.8780517578125 1907.6500244140625 1927.9410400390625 1960.282958984375 1987.053955078125 2060.5859375 2121.787109375 2142.279052734375 2125.56005859375 2122.572021484375 2125.712890625 2135.68505859375 2150.466064453125 2174.4580078125 2214.3291015625 2236.930908203125 2260.431884765625 2288.964111328125 2330.715087890625 2343.797119140625 2369.738037109375 2353.3701171875 2353.73095703125 2318.60302734375 2360.10400390625 2382.115966796875 2446.72705078125 2505.448974609375 2468.340087890625 2457.761962890625 2364.06298828125 2260.794921875 2201.666015625 2180.16796875 2167.678955078125 2152.77099609375 2136.382080078125 2124.174072265625 2116.27490234375 2114.93701171875 2117.7080078125 2117.389892578125 2121.89111328125 2127.992919921875 2129.6240234375 2139.14501953125 2153.20703125 2213.657958984375 2302.75 2375.56103515625 2342.572998046875 2386.404052734375 2405.345947265625 2426.20703125 2439.14892578125 2467.050048828125 2489.781982421875 2507.512939453125 2507.294921875 2526.0869140625 2553.458984375 2550.431884765625 2543.43408203125 2542.966064453125 2563.337890625 2582.25 2598.511962890625 2610.715087890625
-9999 -9999 -9999 -9999 -9999 -9999 -9999 -9999 -9999 -9999 -9999 -9999 -9999 -9999 -9999 -9999 -9999 -9999 -9999 -9999 2251.10400390625 2247.216064453125 2247.797119140625 2239.448974609375 2230.301025390625 2216.6630859375 2197.864013671875 2187.095947265625 2171.887939453125 2155.159912109375 2136.422119140625 2122.693115234375 2110.465087890625 2104.346923828125 2094.158935546875 2081.659912109375 2062.781982421875 2062.614013671875 2054.115966796875 2039.218017578125 2036.509033203125 2024.470947265625 2013.4029541015625 2003.0450439453125 1994.2659912109375 1991.197998046875 1990.06005859375 1992.862060546875 1986.4139404296875 1981.405029296875 1982.126953125 1980.468994140625 1980.77099609375 1984.31298828125 1993.4940185546875 1986.5460205078125 1975.14794921875 1966.8599853515625 1955.27099609375 1947.29296875 1938.89501953125 1932.7469482421875 1931.8289794921875 1931.5799560546875 1932.7220458984375 1934.2540283203125 1932.43603515625 1932.5269775390625 1935.1490478515625 1937.9310302734375 1942.873046875 1946.6949462890625 1951.89599609375 1958.387939453125 1966.010009765625 1971.58203125 1976.4129638671875 1980.0150146484375 1983.93701171875 1988.4090576171875 1992.47998046875 1995.02197265625 1997.904052734375 1999.93603515625 2001.248046875 1997.218994140625 1998.98095703125 1993.7220458984375 1992.1929931640625 1990.125 1986.2960205078125 1981.2569580078125 1974.66796875 1968.5689697265625 1964.3409423828125 1962.02197265625 1958.77294921875 1953.4339599609375 1947.9659423828125 1941.0570068359375 1934.0179443359375 1926.759033203125 1917.489990234375 1907.6519775390625 1892.5830078125 1881.4739990234375 1872.2850341796875 1863.7060546875 1852.93798828125 1843.8590087890625 1836.050048828125 1823.0909423828125 1812.5830078125 1801.2340087890625 1790.2049560546875 1782.7760009765625 1782.116943359375 1777.5889892578125 1769.52001953125 1751.1510009765625 1733.52197265625 1717.27294921875 1704.114990234375 1694.885986328125 1687.5570068359375 1682.5479736328125 1679.6600341796875 1677.52099609375 1671.6319580078125 1668.4530029296875 1667.0439453125 1663.2960205078125 1655.697021484375 1651.637939453125 1650.18896484375 1644.8599853515625 1638.3719482421875 1627.9730224609375 1617.4940185546875 1610.2850341796875 1605.1070556640625 1602.16796875 1598.178955078125 1593.77001953125 1586.821044921875 1573.7130126953125 1564.1240234375 1554.9749755859375 1552.18603515625 1550.156982421875 1550.5989990234375 1554.56005859375 1556.301025390625 1552.8719482421875 1547.262939453125 1540.31494140625 1532.9560546875 1525.70703125 1520.2879638671875 1511.199951171875 1499.9310302734375 1487.592041015625 1472.0030517578125 1453.2939453125 1435.35595703125 1421.0870361328125 1402.5579833984375 1391.18896484375 1377.31005859375 1368.4019775390625 1359.9530029296875 1351.154052734375 1344.8360595703125 1345.697021484375 1346.1689453125 1349.43994140625 1351.6619873046875 1355.7030029296875 1367.5450439453125 1382.095947265625 1401.5169677734375 1422.928955078125 1476.5999755859375 1517.4420166015625 1552.54296875 1597.0150146484375 1634.2259521484375 1655.8480224609375 1674.6490478515625 1683.8310546875 1687.7020263671875 1698.60400390625 1715.7249755859375 1734.7469482421875 1758.3280029296875 1784.5799560546875 1805.6109619140625 1826.0830078125 1845.9139404296875 1865.8160400390625 1887.14697265625 1912.18896484375 1934.52001953125 1971.8819580078125 2004.593017578125 2074.304931640625 2107.18603515625 2116.498046875 2100.2490234375 2096.89111328125 2104.19189453125 2121.22412109375 2144.985107421875 2168.9169921875 2208.798095703125 2236.93994140625 2268.611083984375 2304.89306640625 2343.214111328125 2362.51611328125 2422.007080078125 2382.589111328125 2387.669921875 2341.181884765625 2375.97412109375 2406.574951171875 2468.376953125 2533.427978515625 2519.010009765625 2482.910888671875 2380.903076171875 2346.1640625 2235.64599609375 2195.376953125 2180.85888671875 2161.5400390625 2148.69189453125 2138.173095703125 2130.405029296875 2125.2958984375 2126.748046875 2125.64892578125 2127.7509765625 2135.632080078125 2134.43310546875 2140.3740234375 2148.93603515625 2168.22705078125 2213.60888671875 2304.341064453125 2338.451904296875 2324.823974609375 2345.054931640625 2361.406982421875 2394.117919921875 2420.530029296875 2456.660888671875 2483.6630859375 2512.9951171875 2531.846923828125 2562.589111328125 2568.990966796875 2560.43310546875 2554.4150390625 2570.55810546875 2585.840087890625 2601.64208984375 2613.053955078125
-9999 -9999 -9999 -9999 -9999 -9999 -9999 -9999 -9999 -9999 -9999 -9999 -9999 -9999 -9999 -9999 -9999 -9999 -9999 2249.361083984375 2241.762939453125 2235.804931640625 2222.76708984375 2220.529052734375 2210.39990234375 2201.931884765625 2189.694091796875 2170.595947265625 2158.6669921875 2142.759033203125 2123.2109375 2112.952880859375 2099.52490234375 2085.285888671875 2074.157958984375 2063.22998046875 2046.251953125 2041.552978515625 2030.385009765625 2022.97705078125 2020.218994140625 2007.760986328125 1996.7020263671875 1986.823974609375 1978.885986328125 1975.427978515625 1971.9990234375 1968.571044921875 1966.572998046875 1963.2149658203125 1961.97705078125 1965.0679931640625 1967.8699951171875 1972.001953125 1982.134033203125 1973.7550048828125 1960.93701171875 1952.3389892578125 1941.4210205078125 1932.9229736328125 1924.4840087890625 1921.68603515625 1921.7080078125 1922.5999755859375 1924.1610107421875 1923.8929443359375 1923.155029296875 1923.5770263671875 1925.1190185546875 1926.0999755859375 1927.35205078125 1933.2440185546875 1937.5460205078125 1944.906982421875 1951.47900390625 1958.5810546875 1964.06298828125 1968.4840087890625 1972.7860107421875 1977.14794921875 1980.1600341796875 1983.2320556640625 1986.3330078125 1989.60498046875 1990.197021484375 1990.43896484375 1988.1700439453125 1982.592041015625 1980.5030517578125 1979.0340576171875 1976.7349853515625 1973.365966796875 1966.5980224609375 1961.26904296875 1958.0799560546875 1957.051025390625 1954.9520263671875 1951.2039794921875 1947.0450439453125 1940.906005859375 1935.0570068359375 1926.0989990234375 1914.8800048828125 1906.6409912109375 1894.9620361328125 1884.373046875 1874.9449462890625 1863.5760498046875 1853.2569580078125 1845.508056640625 1836.259033203125 1824.3509521484375 1814.9820556640625 1804.4830322265625 1793.053955078125 1784.906005859375 1782.5069580078125 1775.907958984375 1766.0989990234375 1749.280029296875 1729.2919921875 1714.7030029296875 1701.593994140625 1693.0849609375 1688.2860107421875 1683.887939453125 1681.458984375 1678.1199951171875 1671.73095703125 1667.7320556640625 1664.9239501953125 1659.81494140625 1654.0660400390625 1651.6070556640625 1651.009033203125 1644.780029296875 1637.3509521484375 1626.56201171875 1617.2330322265625 1609.2750244140625 1605.3360595703125 1603.2469482421875 1599.0579833984375 1593.009033203125 1584.8609619140625 1575.001953125 1561.133056640625 1556.1639404296875 1553.2049560546875 1552.636962890625 1553.0780029296875 1556.279052734375 1557.1300048828125 1552.56103515625 1547.9630126953125 1542.2939453125 1536.0450439453125 1527.3759765625 1521.22802734375 1510.8489990234375 1499.5999755859375 1486.4410400390625 1472.83203125 1456.7440185546875 1445.175048828125 1426.916015625 1411.47705078125 1400.2779541015625 1384.3499755859375 1370.23095703125 1358.4119873046875 1351.3330078125 1348.43505859375 1345.5059814453125 1348.1080322265625 1353.0989990234375 1355.791015625 1357.001953125 1369.0340576171875 1386.9449462890625 1406.5770263671875 1428.3780517578125 1472.780029296875 1516.970947265625 1549.782958984375 1589.5140380859375 1631.916015625 1655.8270263671875 1672.8590087890625 1685.3599853515625 1689.251953125 1698.7230224609375 1714.0450439453125 1732.656005859375 1753.93798828125 1775.0789794921875 1796.56103515625 1819.4620361328125 1839.843994140625 1862.4549560546875 1885.5069580078125 1913.1280517578125 1936.8599853515625 1974.1910400390625 2001.77294921875 2038.2939453125 2070.10595703125 2088.777099609375 2078.718994140625 2077.179931640625 2086.451904296875 2123.712890625 2145.35498046875 2180.466064453125 2223.16796875 2271.22900390625 2297.7509765625 2329.60205078125 2382.714111328125 2402.705078125 2430.467041015625 2431.76806640625 2413.909912109375 2371.301025390625 2398.222900390625 2451.884033203125 2494.0859375 2546.886962890625 2570.989013671875 2547.429931640625 2409.241943359375 2358.202880859375 2333.985107421875 2210.385986328125 2196.427978515625 2182.62890625 2164.48095703125 2152.632080078125 2143.06396484375 2137.364990234375 2137.346923828125 2135.72802734375 2135.02001953125 2137.15087890625 2137.241943359375 2143.39404296875 2152.955078125 2166.866943359375 2191.847900390625 2233.14990234375 2269.631103515625 2285.77294921875 2297.2041015625 2312.5859375 2339.277099609375 2373.4189453125 2406.360107421875 2430.5419921875 2489.073974609375 2523.075927734375 2559.4580078125 2584.050048828125 2572.8330078125 2571.60498046875 2580.326904296875 2586.85888671875 2598.98095703125 2610.7041015625
-9999 -9999 -9999 -9999 -9999 -9999 -9999 -9999 -9999 -9999 -9999 -9999 -9999 -9999 -9999 -9999 -9999 2257.427001953125 2249.178955078125 2239.841064453125 2227.992919921875 2221.053955078125 2213.4560546875 2203.077880859375 2197.330078125 2189.23193359375 2178.5830078125 2160.27490234375 2146.68701171875 2129.779052734375 2113.89990234375 2101.5419921875 2086.75390625 2070.56591796875 2057.318115234375 2047.01904296875 2033.52099609375 2025.072998046875 2015.0350341796875 2009.85595703125 2005.14794921875 1993.5400390625 1981.4420166015625 1970.0040283203125 1962.93505859375 1958.126953125 1958.529052734375 1953.3310546875 1947.4219970703125 1945.614013671875 1945.906005859375 1946.697998046875 1949.56005859375 1955.041015625 1967.2430419921875 1961.675048828125 1954.0570068359375 1944.5880126953125 1933.6199951171875 1925.511962890625 1917.2939453125 1913.5560302734375 1913.0770263671875 1912.6689453125 1915.3409423828125 1915.2430419921875 1913.4239501953125 1913.845947265625 1914.258056640625 1914.4200439453125 1917.3919677734375 1920.383056640625 1924.4649658203125 1931.467041015625 1937.198974609375 1943.4100341796875 1950.072021484375 1956.6939697265625 1960.426025390625 1963.95703125 1968.759033203125 1972.31103515625 1974.572998046875 1977.4150390625 1977.8260498046875 1978.468017578125 1977.6700439453125 1973.31103515625 1968.7220458984375 1966.9329833984375 1965.0050048828125 1961.7259521484375 1957.3470458984375 1953.8480224609375 1951.5989990234375 1951.041015625 1948.781982421875 1946.2530517578125 1942.4239501953125 1937.7650146484375 1933.2969970703125 1926.468017578125 1913.698974609375 1905.18994140625 1896.842041015625 1886.322998046875 1875.1639404296875 1862.64501953125 1853.68603515625 1845.3380126953125 1835.8289794921875 1824.9599609375 1815.3709716796875 1805.251953125 1793.6939697265625 1784.9649658203125 1779.9859619140625 1773.156982421875 1761.407958984375 1745.3299560546875 1727.9510498046875 1713.1820068359375 1701.093017578125 1693.6939697265625 1688.9959716796875 1684.7769775390625 1683.0179443359375 1677.698974609375 1671.7110595703125 1667.362060546875 1663.113037109375 1658.1639404296875 1652.864990234375 1651.4169921875 1649.8580322265625 1643.8389892578125 1635.8299560546875 1625.791015625 1615.9530029296875 1609.803955078125 1606.4949951171875 1605.39599609375 1599.0870361328125 1591.1190185546875 1582.6400146484375 1571.301025390625 1562.261962890625 1557.383056640625 1555.1949462890625 1554.9759521484375 1555.72705078125 1557.998046875 1557.51904296875 1553.051025390625 1549.6719970703125 1543.883056640625 1537.654052734375 1528.10498046875 1520.217041015625 1510.0980224609375 1497.8489990234375 1484.22998046875 1470.7320556640625 1458.4530029296875 1446.303955078125 1431.0150146484375 1413.7559814453125 1399.657958984375 1382.718994140625 1373.1300048828125 1361.0909423828125 1354.362060546875 1350.8740234375 1346.7349853515625 1350.886962890625 1354.16796875 1359.199951171875 1360.77099609375 1371.133056640625 1386.4840087890625 1405.7659912109375 1428.386962890625 1480.3489990234375 1505.6300048828125 1547.2220458984375 1591.1529541015625 1635.7650146484375 1652.7259521484375 1661.5479736328125 1677.8289794921875 1688.6910400390625 1698.7320556640625 1713.56396484375 1730.135009765625 1747.5269775390625 1767.8580322265625 1789.6099853515625 1815.3809814453125 1837.302978515625 1858.2039794921875 1882.3060302734375 1906.406982421875 1933.3289794921875 1959.6600341796875 1985.322021484375 2009.282958984375 2031.5150146484375 2062.77587890625 2062.927978515625 2059.5791015625 2075.14111328125 2108.83203125 2136.0439453125 2157.794921875 2248.656982421875 2306.12890625 2326.25 2340.23193359375 2365.512939453125 2405.235107421875 2441.555908203125 2462.637939453125 2443.7890625 2394.94091796875 2451.471923828125 2485.77392578125 2542.875 2572.797119140625 2593.3779296875 2553.56005859375 2524.430908203125 2391.762939453125 2365.31396484375 2298.615966796875 2211.20703125 2197.799072265625 2181.550048828125 2167.681884765625 2157.492919921875 2149.925048828125 2149.416015625 2146.818115234375 2144.968994140625 2141.861083984375 2144.912109375 2153.0029296875 2162.8349609375 2174.2060546875 2190.617919921875 2211.638916015625 2248.27099609375 2268.741943359375 2278.654052734375 2292.614990234375 2322.95703125 2349.85791015625 2374.110107421875 2406.531005859375 2446.702880859375 2491.02490234375 2527.818115234375 2568.419921875 2573.342041015625 2560.23388671875 2559.416015625 2570.529052734375 2585.85107421875 2589.56298828125
-9999 -9999 -9999 -9999 -9999 -9999 -9999 -9999 -9999 -9999 -9999 -9999 -9999 -9999 -9999 -9999 2278.2548828125 2258.427001953125 2241.178955078125 2227.85009765625 2213.031982421875 2199.114013671875 2199.736083984375 2193.076904296875 2183.138916015625 2173.430908203125 2166.712890625 2152.965087890625 2134.805908203125 2119.968017578125 2101.419921875 2088.011962890625 2071.972900390625 2059.06494140625 2048.547119140625 2033.4090576171875 2022.781005859375 2013.6719970703125 2004.2340087890625 1995.2159423828125 1985.64794921875 1973.968994140625 1964.720947265625 1956.4630126953125 1950.7850341796875 1948.8070068359375 1946.3280029296875 1944.1400146484375 1941.4019775390625 1938.5040283203125 1937.675048828125 1937.0570068359375 1937.968994140625 1937.970947265625 1943.29296875 1952.4539794921875 1952.0159912109375 1944.97802734375 1927.9599609375 1919.0009765625 1912.032958984375 1907.9549560546875 1907.22705078125 1904.509033203125 1903.260009765625 1902.2919921875 1903.7440185546875 1903.676025390625 1905.136962890625 1905.239013671875 1906.220947265625 1909.8330078125 1914.3050537109375 1919.115966796875 1924.3580322265625 1931.1099853515625 1936.362060546875 1941.3330078125 1946.39501953125 1951.8170166015625 1956.489013671875 1959.050048828125 1961.2120361328125 1965.4239501953125 1967.3759765625 1967.5570068359375 1965.3790283203125 1961.0799560546875 1957.31201171875 1955.54296875 1954.553955078125 1952.614990234375 1949.2459716796875 1945.927978515625 1944.1590576171875 1943.25 1940.8310546875 1937.741943359375 1935.2939453125 1932.094970703125 1928.885986328125 1923.947021484375 1912.91796875 1904.5699462890625 1894.791015625 1882.7120361328125 1870.9129638671875 1859.823974609375 1853.196044921875 1844.626953125 1834.93798828125 1825.3189697265625 1816.801025390625 1806.1319580078125 1793.4930419921875 1783.64404296875 1778.39501953125 1770.1669921875 1757.66796875 1741.458984375 1727.0400390625 1712.8509521484375 1701.4530029296875 1694.7239990234375 1689.7950439453125 1685.9759521484375 1683.68701171875 1677.8790283203125 1670.93994140625 1665.531005859375 1660.52197265625 1656.2330322265625 1652.2550048828125 1651.2359619140625 1648.5469970703125 1641.72802734375 1633.718994140625 1625.3509521484375 1615.60205078125 1610.2130126953125 1607.4639892578125 1603.905029296875 1596.2769775390625 1587.89794921875 1579.6590576171875 1569.5799560546875 1562.4210205078125 1559.373046875 1558.2640380859375 1558.824951171875 1558.3360595703125 1558.6669921875 1556.8489990234375 1552.8599853515625 1549.3409423828125 1544.60205078125 1538.4129638671875 1528.364990234375 1518.9659423828125 1506.8470458984375 1494.258056640625 1481.56005859375 1469.31103515625 1458.261962890625 1445.532958984375 1428.4339599609375 1406.2559814453125 1399.95703125 1389.748046875 1376.239013671875 1366.510009765625 1355.552001953125 1350.4630126953125 1349.6739501953125 1355.60595703125 1358.14697265625 1363.198974609375 1366.0799560546875 1374.251953125 1388.79296875 1414.2650146484375 1436.8270263671875 1484.5880126953125 1512.1500244140625 1546.571044921875 1584.52294921875 1623.4139404296875 1644.5560302734375 1640.906982421875 1660.8389892578125 1676.2900390625 1692.031982421875 1707.802978515625 1721.324951171875 1735.4759521484375 1752.887939453125 1775.468994140625 1806.1510009765625 1824.7020263671875 1843.053955078125 1863.2049560546875 1882.656982421875 1918.748046875 1938.68994140625 1964.1409912109375 1984.9029541015625 2006.56396484375 2025.64599609375 2044.18701171875 2038.489013671875 2075.050048828125 2095.862060546875 2124.722900390625 2140.905029296875 2168.805908203125 2306.72802734375 2305.0791015625 2319.37109375 2357.431884765625 2380.27392578125 2409.77490234375 2440.1669921875 2469.407958984375 2462.5 2465.89111328125 2527.35302734375 2575.60400390625 2595.3759765625 2592.297119140625 2571.178955078125 2558.22998046875 2544.912109375 2437.8330078125 2431.2548828125 2239.805908203125 2213.008056640625 2197.1201171875 2184.62109375 2172.81298828125 2165.533935546875 2162.825927734375 2161.2470703125 2157.239013671875 2157.010009765625 2157.6708984375 2164.193115234375 2175.89404296875 2185.49609375 2195.116943359375 2208.888916015625 2230.840087890625 2247.201904296875 2263.7529296875 2279.044921875 2297.8759765625 2335.93798828125 2365.928955078125 2408.071044921875 2438.972900390625 2459.735107421875 2523.616943359375 2562.279052734375 2558.541015625 2545.98388671875 2543.72607421875 2558.117919921875 2575.860107421875 2584.2119140625
-9999 -9999 -9999 -9999 -9999 -9999 -9999 -9999 -9999 -9999 -9999 -9999 -9999 -9999 -9999 2298.56298828125 2276.343994140625 2256.7958984375 2234.998046875 2218.75 2203.612060546875 2189.98291015625 2181.425048828125 2176.287109375 2171.30908203125 2161.719970703125 2153.701904296875 2141.31396484375 2128.385986328125 2114.116943359375 2100.85888671875 2077.1708984375 2064.93310546875 2046.574951171875 2024.8160400390625 2013.1280517578125 2005.52001953125 1996.81201171875 1986.2130126953125 1980.9949951171875 1968.0069580078125 1959.739013671875 1952.6510009765625 1948.4320068359375 1944.5439453125 1938.4959716796875 1933.5679931640625 1928.969970703125 1926.8409423828125 1925.572998046875 1926.824951171875 1927.89697265625 1930.2679443359375 1931.72998046875 1933.6920166015625 1937.2939453125 1943.0250244140625 1941.237060546875 1930.8590087890625 1913.9310302734375 1905.31298828125 1902.7939453125 1901.135986328125 1899.16796875 1897.31005859375 1895.8310546875 1895.532958984375 1896.875 1894.7669677734375 1895.8489990234375 1897.1500244140625 1899.7020263671875 1904.7139892578125 1908.9659423828125 1912.3370361328125 1917.208984375 1922.2010498046875 1927.262939453125 1931.4840087890625 1935.5660400390625 1942.39794921875 1946.780029296875 1950.4119873046875 1951.802978515625 1951.385009765625 1954.447021484375 1953.6080322265625 1949.2900390625 1945.5810546875 1943.5419921875 1943.113037109375 1942.1949462890625 1940.656005859375 1938.5369873046875 1937.3580322265625 1936.529052734375 1933.73095703125 1930.1419677734375 1926.4730224609375 1924.2740478515625 1922.4449462890625 1918.927001953125 1911.8380126953125 1902.529052734375 1892.7099609375 1878.291015625 1866.532958984375 1857.7239990234375 1851.125 1841.14599609375 1832.3570556640625 1824.8590087890625 1816.949951171875 1802.8909912109375 1791.802001953125 1780.282958984375 1774.2750244140625 1765.5560302734375 1753.237060546875 1739.14794921875 1726.47900390625 1713.0810546875 1702.58203125 1695.04296875 1690.093994140625 1686.4749755859375 1683.0670166015625 1676.657958984375 1670.2490234375 1664.1700439453125 1659.1309814453125 1654.4530029296875 1651.5140380859375 1650.4549560546875 1646.666015625 1640.3570556640625 1631.8089599609375 1624.0999755859375 1615.970947265625 1610.802001953125 1607.322998046875 1601.324951171875 1592.845947265625 1584.8270263671875 1576.387939453125 1568.43896484375 1563.760986328125 1562.10205078125 1561.77294921875 1562.10400390625 1560.364990234375 1559.156982421875 1556.0279541015625 1553.43896484375 1549.3299560546875 1545.3609619140625 1538.2030029296875 1528.5439453125 1517.905029296875 1504.4759521484375 1490.5379638671875 1480.3489990234375 1468.6400146484375 1458.260986328125 1443.1319580078125 1420.7640380859375 1406.925048828125 1401.3360595703125 1391.967041015625 1383.91796875 1371.1199951171875 1357.1209716796875 1349.6739501953125 1356.7440185546875 1360.2149658203125 1366.7569580078125 1370.43798828125 1371.3900146484375 1378.7509765625 1393.552978515625 1413.4439697265625 1444.8060302734375 1478.987060546875 1507.76904296875 1542.3399658203125 1577.9320068359375 1605.9029541015625 1614.0849609375 1620.365966796875 1638.137939453125 1669.8890380859375 1683.3809814453125 1693.5419921875 1707.39404296875 1721.9949951171875 1735.886962890625 1751.64794921875 1768.030029296875 1786.1309814453125 1825.1729736328125 1842.2939453125 1871.0460205078125 1897.376953125 1921.779052734375 1938.5699462890625 1957.302001953125 1978.9830322265625 2009.4449462890625 2022.43603515625 2022.0980224609375 2062.549072265625 2083.65087890625 2115.133056640625 2140.404052734375 2159.656005859375 2231.43701171875 2279.62890625 2300.75 2334.402099609375 2379.06298828125 2408.034912109375 2431.8759765625 2472.677978515625 2496.2890625 2467.2109375 2521.7119140625 2545.56396484375 2574.6650390625 2604.826904296875 2604.18798828125 2606.929931640625 2590.3310546875 2494.653076171875 2463.194091796875 2365.825927734375 2235.26708984375 2213.489013671875 2199.989990234375 2189.431884765625 2181.1630859375 2176.905029296875 2175.5859375 2172.337890625 2176.0791015625 2177.659912109375 2189.491943359375 2189.923095703125 2201.014892578125 2208.635986328125 2214.91796875 2221.368896484375 2238.111083984375 2254.403076171875 2271.083984375 2292.305908203125 2320.787109375 2353.80908203125 2402.93994140625 2428.092041015625 2444.06396484375 2466.24609375 2521.279052734375 2527.56103515625 2517.29296875 2526.64501953125 2540.007080078125 2555.580078125 2576.681884765625
-9999 -9999 -9999 -9999 -9999 -9999 -9999 -9999 -9999 -9999 -9999 -9999 -9999 -9999 2314.360107421875 2285.612060546875 2265.614013671875 2249.56591796875 2231.096923828125 2216.968994140625 2196.611083984375 2184.572998046875 2177.23388671875 2164.986083984375 2156.35791015625 2153.169921875 2142.181884765625 2128.032958984375 2116.385009765625 2096.306884765625 2079.138916015625 2060.280029296875 2046.9720458984375 2024.9940185546875 2007.5159912109375 1995.637939453125 1985.8189697265625 1978.3310546875 1972.052978515625 1965.2950439453125 1959.18603515625 1951.5279541015625 1943.1300048828125 1935.501953125 1928.6639404296875 1921.824951171875 1917.237060546875 1915.009033203125 1912.6710205078125 1912.85205078125 1912.7540283203125 1914.4959716796875 1918.218017578125 1923.56005859375 1926.321044921875 1929.123046875 1932.885009765625 1931.1070556640625 1920.5279541015625 1908.25 1903.761962890625 1901.39404296875 1899.426025390625 1896.5269775390625 1893.8389892578125 1890.1910400390625 1891.9029541015625 1888.833984375 1886.676025390625 1888.3179931640625 1888.1500244140625 1891.612060546875 1894.883056640625 1899.9949951171875 1903.5770263671875 1907.5789794921875 1911.989990234375 1916.751953125 1918.8740234375 1923.4560546875 1928.0970458984375 1930.3890380859375 1933.8809814453125 1936.782958984375 1939.843994140625 1940.3360595703125 1940.468017578125 1937.6689453125 1933.27001953125 1931.801025390625 1931.343017578125 1928.9139404296875 1928.60498046875 1928.5260009765625 1927.177978515625 1926.76904296875 1924.760009765625 1921.6109619140625 1917.8719482421875 1914.823974609375 1914.385009765625 1912.2459716796875 1907.136962890625 1899.197998046875 1888.6600341796875 1875.041015625 1863.9219970703125 1855.56298828125 1849.9840087890625 1838.0660400390625 1829.906982421875 1823.387939453125 1813.198974609375 1798.969970703125 1786.1219482421875 1777.4029541015625 1770.5140380859375 1760.114990234375 1748.9659423828125 1736.8780517578125 1725.239013671875 1714.239990234375 1705.2010498046875 1697.1820068359375 1691.0439453125 1685.844970703125 1681.4959716796875 1675.0269775390625 1668.197998046875 1662.56005859375 1658.551025390625 1654.6820068359375 1651.6429443359375 1648.843994140625 1643.9659423828125 1638.406982421875 1631.5880126953125 1623.8990478515625 1617.1300048828125 1611.7320556640625 1606.2530517578125 1596.9840087890625 1588.85498046875 1581.2159423828125 1573.5579833984375 1568.7889404296875 1565.8299560546875 1565.1209716796875 1565.2320556640625 1563.7840576171875 1562.18505859375 1558.0760498046875 1554.3070068359375 1553.16796875 1549.8089599609375 1546.2010498046875 1538.7220458984375 1528.4029541015625 1517.4639892578125 1504.7249755859375 1489.906982421875 1479.5479736328125 1469.5889892578125 1458.31005859375 1443.56201171875 1422.0030517578125 1409.1939697265625 1402.35498046875 1391.406005859375 1380.2469482421875 1369.1090087890625 1361.199951171875 1349.9410400390625 1358.782958984375 1364.323974609375 1368.946044921875 1375.447021484375 1378.72900390625 1384.81005859375 1395.761962890625 1412.2430419921875 1444.2349853515625 1478.3360595703125 1508.8780517578125 1537.72900390625 1563.6610107421875 1585.02197265625 1595.89404296875 1600.5450439453125 1624.656982421875 1648.97802734375 1666.0899658203125 1681.8909912109375 1694.6429443359375 1708.5450439453125 1725.5260009765625 1741.488037109375 1758.029052734375 1775.010986328125 1798.83203125 1824.2840576171875 1848.2850341796875 1873.987060546875 1890.137939453125 1918.68994140625 1939.1309814453125 1955.9930419921875 1981.2039794921875 1990.14599609375 2012.386962890625 2044.2989501953125 2091.580078125 2126.501953125 2159.60302734375 2185.02490234375 2238.10595703125 2283.087890625 2298.43896484375 2327.4208984375 2351.2919921875 2374.674072265625 2415.344970703125 2457.89697265625 2488.028076171875 2474.570068359375 2492.531005859375 2519.0830078125 2539.844970703125 2560.7958984375 2585.818115234375 2600.34912109375 2611.611083984375 2526.9619140625 2464.7041015625 2397.985107421875 2253.556884765625 2233.238037109375 2215.429931640625 2204.6708984375 2195.64306640625 2191.583984375 2190.5458984375 2189.717041015625 2197.10888671875 2198.179931640625 2219.220947265625 2223.373046875 2221.674072265625 2225.2958984375 2227.596923828125 2224.928955078125 2232.639892578125 2249.662109375 2270.363037109375 2283.195068359375 2307.47607421875 2330.66796875 2376.12890625 2410.220947265625 2428.31396484375 2447.9560546875 2464.718017578125 2473.840087890625 2486.83203125 2487.264892578125 2488.136962890625 2501.458984375 2545.39111328125
-9999 -9999 -9999 -9999 -9999 -9999 -9999 -9999 -9999 -9999 -9999 -9999 -9999 2306.18798828125 2288.10009765625 2273.2919921875 2256.443115234375 2242.7451171875 2224.9169921875 2209.569091796875 2199.489990234375 2185.02197265625 2172.85400390625 2159.0458984375 2150.0869140625 2139.7890625 2129.801025390625 2121.29296875 2108.014892578125 2080.575927734375 2061.988037109375 2044.18994140625 2026.10205078125 2009.1729736328125 1993.2750244140625 1980.7769775390625 1970.0789794921875 1964.27099609375 1958.1519775390625 1951.6739501953125 1946.345947265625 1933.7979736328125 1926.6490478515625 1918.6309814453125 1912.113037109375 1908.074951171875 1904.5469970703125 1902.72802734375 1900.3900146484375 1900.3719482421875 1899.3740234375 1899.5150146484375 1903.717041015625 1908.458984375 1917.071044921875 1921.6529541015625 1921.093994140625 1917.43603515625 1910.6180419921875 1905.8499755859375 1904.291015625 1902.2130126953125 1898.85498046875 1894.2969970703125 1891.0479736328125 1887.75 1890.9620361328125 1887.2039794921875 1880.666015625 1880.217041015625 1881.3690185546875 1882.490966796875 1887.1829833984375 1892.06396484375 1895.7860107421875 1898.8780517578125 1902.760009765625 1907.240966796875 1907.7430419921875 1909.31494140625 1914.0870361328125 1916.4990234375 1919.7099609375 1926.9219970703125 1926.14404296875 1926.135986328125 1926.3170166015625 1924.1180419921875 1921.530029296875 1919.4110107421875 1917.85205078125 1916.29296875 1916.5040283203125 1912.68603515625 1910.7769775390625 1909.3780517578125 1906.3790283203125 1904.969970703125 1903.552001953125 1902.2130126953125 1902.2239990234375 1900.425048828125 1898.2459716796875 1893.387939453125 1883.239013671875 1871.8499755859375 1859.5810546875 1852.241943359375 1846.864013671875 1839.7449951171875 1831.10595703125 1821.9969482421875 1810.197998046875 1795.8199462890625 1782.510986328125 1773.9219970703125 1765.9029541015625 1756.3740234375 1746.39599609375 1735.8370361328125 1724.3680419921875 1714.01904296875 1705.9200439453125 1698.1820068359375 1691.9730224609375 1685.06396484375 1679.14501953125 1672.4959716796875 1666.3680419921875 1660.9990234375 1658.1300048828125 1655.0909423828125 1652.1319580078125 1647.35400390625 1642.7750244140625 1636.2960205078125 1628.636962890625 1623.468017578125 1617.3800048828125 1610.791015625 1603.2919921875 1593.0830078125 1584.593994140625 1577.43603515625 1572.717041015625 1568.998046875 1568.5789794921875 1568.43994140625 1568.1820068359375 1565.06298828125 1562.073974609375 1556.074951171875 1552.406005859375 1551.9169921875 1549.7889404296875 1545.8399658203125 1538.3509521484375 1526.991943359375 1515.1529541015625 1505.635009765625 1492.0159912109375 1482.43701171875 1471.248046875 1460.489013671875 1448.281005859375 1427.281982421875 1411.262939453125 1402.114013671875 1391.385009765625 1378.2969970703125 1369.258056640625 1364.4090576171875 1352.3299560546875 1362.4520263671875 1368.363037109375 1376.364990234375 1381.14599609375 1385.3380126953125 1388.18896484375 1401.1309814453125 1417.4329833984375 1440.8740234375 1477.9659423828125 1499.14697265625 1529.1590576171875 1553.3900146484375 1560.2919921875 1572.532958984375 1582.7650146484375 1597.3759765625 1614.8580322265625 1644.5589599609375 1670.041015625 1689.8919677734375 1707.6639404296875 1725.675048828125 1742.72705078125 1759.947998046875 1776.969970703125 1794.4510498046875 1811.532958984375 1832.4639892578125 1854.5460205078125 1876.1070556640625 1899.718994140625 1923.0899658203125 1941.822021484375 1967.4129638671875 1997.074951171875 2022.5059814453125 2051.528076171875 2103.199951171875 2142.0009765625 2175.302978515625 2196.444091796875 2258.466064453125 2321.556884765625 2322.448974609375 2343.0400390625 2358.221923828125 2372.4130859375 2405.864990234375 2437.60595703125 2452.488037109375 2451.739013671875 2464.841064453125 2484.902099609375 2517.5439453125 2537.93505859375 2559.35693359375 2604.93798828125 2612.389892578125 2537.5009765625 2469.04296875 2391.214111328125 2301.56591796875 2255.137939453125 2235.069091796875 2218.5009765625 2210.531982421875 2206.2041015625 2205.705078125 2208.406982421875 2217.97802734375 2223.279052734375 2245.700927734375 2260.162109375 2252.93408203125 2244.695068359375 2239.126953125 2239.068115234375 2241.909912109375 2249.27099609375 2274.972900390625 2295.384033203125 2302.466064453125 2318.636962890625 2343.509033203125 2384.90087890625 2415.673095703125 2436.68505859375 2447.096923828125 2456.909912109375 2469.802001953125 2468.43408203125 2471.506103515625 2483.117919921875 2498.48095703125
2348.14404296875 2354.0458984375 2358.998046875 -9999 -9999 -9999 -9999 -9999 -9999 -9999 -9999 -9999 2293.406005859375 2274.95703125 2265.72900390625 2255.341064453125 2243.79296875 2239.344970703125 2223.635986328125 2206.048095703125 2194.1201171875 2182.64208984375 2166.782958984375 2154.9951171875 2147.467041015625 2132.76904296875 2114.39990234375 2109.7919921875 2090.75390625 2072.06591796875 2055.72802734375 2033.698974609375 2012.5810546875 1995.54296875 1980.93505859375 1968.0260009765625 1961.5479736328125 1954.5400390625 1945.322021484375 1934.3740234375 1928.4849853515625 1922.2569580078125 1912.3590087890625 1906.9510498046875 1903.302001953125 1899.5340576171875 1898.365966796875 1896.947998046875 1893.25 1893.220947265625 1891.7230224609375 1892.8050537109375 1892.987060546875 1895.43798828125 1900.1400146484375 1904.9620361328125 1909.4539794921875 1911.81494140625 1911.717041015625 1909.6090087890625 1907.6710205078125 1912.322998046875 1904.3740234375 1897.1259765625 1886.927978515625 1883.1400146484375 1886.3709716796875 1880.0030517578125 1875.385009765625 1875.177001953125 1877.4189453125 1877.280029296875 1883.8919677734375 1884.7440185546875 1889.416015625 1890.427001953125 1894.3089599609375 1897.4110107421875 1900.9630126953125 1899.634033203125 1901.0660400390625 1904.91796875 1907.1600341796875 1908.470947265625 1910.54296875 1912.14501953125 1911.447021484375 1909.0780029296875 1907.3890380859375 1906.489990234375 1904.031005859375 1902.1729736328125 1901.2139892578125 1897.864990234375 1895.5660400390625 1893.886962890625 1891.3189697265625 1890.739990234375 1888.8709716796875 1887.3919677734375 1886.9830322265625 1886.68505859375 1886.906005859375 1884.5469970703125 1875.0279541015625 1865.1590576171875 1852.9310302734375 1845.9119873046875 1841.552978515625 1835.89404296875 1827.9549560546875 1817.3470458984375 1805.758056640625 1792.43896484375 1778.8499755859375 1769.821044921875 1761.35302734375 1753.2139892578125 1743.0849609375 1733.5860595703125 1723.0570068359375 1714.4189453125 1706.1500244140625 1698.31103515625 1690.6519775390625 1682.1729736328125 1675.7750244140625 1669.1259765625 1663.5870361328125 1659.988037109375 1657.97900390625 1655.949951171875 1652.08203125 1646.052978515625 1641.364013671875 1634.7449951171875 1629.115966796875 1624.2979736328125 1618.26904296875 1609.739990234375 1598.8609619140625 1588.751953125 1581.14404296875 1574.885009765625 1572.595947265625 1572.0870361328125 1572.14794921875 1571.530029296875 1569.3310546875 1565.781982421875 1560.52294921875 1553.833984375 1551.5059814453125 1550.5970458984375 1548.91796875 1543.97900390625 1536.0699462890625 1525.510986328125 1513.873046875 1504.9940185546875 1492.5350341796875 1482.89599609375 1471.70703125 1461.9090576171875 1450.8499755859375 1436.4410400390625 1423.31201171875 1409.10302734375 1394.385009765625 1382.9759521484375 1370.636962890625 1363.2879638671875 1354.469970703125 1364.31103515625 1370.52294921875 1378.9639892578125 1386.3360595703125 1391.5469970703125 1397.8189697265625 1408.3499755859375 1419.1820068359375 1438.072998046875 1467.9949951171875 1493.156005859375 1519.64794921875 1536.72900390625 1540.0810546875 1559.7919921875 1575.0140380859375 1595.885009765625 1632.2669677734375 1661.738037109375 1680.969970703125 1694.781005859375 1708.6429443359375 1725.2039794921875 1739.595947265625 1755.2469482421875 1771.43896484375 1800.510986328125 1825.1219482421875 1846.303955078125 1861.0150146484375 1881.5469970703125 1917.7080078125 1933.5400390625 1953.281005859375 1976.383056640625 2002.10400390625 2036.2659912109375 2067.527099609375 2106.089111328125 2136.679931640625 2154.201904296875 2169.843017578125 2206.0048828125 2275.676025390625 2301.258056640625 2362.47900390625 2393.700927734375 2421.951904296875 2435.533935546875 2429.324951171875 2430.22705078125 2434.178955078125 2447.080078125 2462.10205078125 2495.54296875 2517.844970703125 2539.926025390625 2606.14794921875 2614.069091796875 2575.65087890625 2482.802001953125 2404.22412109375 2338.39501953125 2276.947021484375 2255.347900390625 2236.9599609375 2226.9609375 2220.532958984375 2221.743896484375 2229.5458984375 2249.007080078125 2251.8779296875 2269.929931640625 2288.77099609375 2287.54296875 2278.804931640625 2254.3359375 2254.55810546875 2258.84912109375 2275.52099609375 2298.58203125 2320.904052734375 2322.8349609375 2324.366943359375 2350.677978515625 2387.280029296875 2416.69189453125 2436.945068359375 2441.26708984375 2447.10888671875 2451.111083984375 2448.633056640625 2459.406005859375 2469.66796875 2486.570068359375
2321.23388671875 2325.006103515625 2328.10693359375 2334.589111328125 -9999 -9999 -9999 -9999 -9999 -9999 2281.802001953125 2269.943115234375 2264.39501953125 2252.20703125 2244.9990234375 2236.090087890625 2229.751953125 2229.14404296875 2217.85595703125 2204.657958984375 2186.339111328125 2172.910888671875 2165.0029296875 2149.47509765625 2142.2060546875 2118.85791015625 2101.52001953125 2088.781982421875 2078.873046875 2063.764892578125 2052.287109375 2026.948974609375 2003.1109619140625 1983.81201171875 1968.0240478515625 1958.14599609375 1948.97802734375 1941.3089599609375 1929.720947265625 1921.282958984375 1917.9649658203125 1912.95703125 1906.498046875 1900.1199951171875 1894.9019775390625 1891.4239501953125 1890.0550537109375 1888.3070068359375 1888.2640380859375 1888.2640380859375 1888.2640380859375 1888.2840576171875 1889.176025390625 1889.5179443359375 1889.1600341796875 1890.4010009765625 1891.883056640625 1898.5849609375 1906.3270263671875 1908.2979736328125 1913.8900146484375 1915.781982421875 1913.2840576171875 1900.43603515625 1882.5469970703125 1873.1090087890625 1871.4410400390625 1869.85302734375 1866.5340576171875 1868.115966796875 1871.7979736328125 1872.8499755859375 1876.4310302734375 1879.343017578125 1882.7049560546875 1884.3470458984375 1885.2989501953125 1889.1099853515625 1891.4119873046875 1892.7640380859375 1892.5660400390625 1893.3070068359375 1895.718994140625 1896.8809814453125 1897.4630126953125 1898.2740478515625 1898.0360107421875 1895.9169921875 1892.637939453125 1890.6199951171875 1888.4210205078125 1885.6219482421875 1883.782958984375 1880.553955078125 1878.7359619140625 1876.8070068359375 1875.6080322265625 1873.6689453125 1873.6800537109375 1873.4019775390625 1872.2430419921875 1873.0439453125 1871.18505859375 1873.7960205078125 1865.238037109375 1854.8690185546875 1845.47998046875 1838.52099609375 1834.342041015625 1829.154052734375 1822.635009765625 1812.2659912109375 1800.947021484375 1788.0179443359375 1775.8199462890625 1766.56103515625 1757.60205078125 1748.6529541015625 1739.85400390625 1730.8050537109375 1720.737060546875 1712.387939453125 1704.7490234375 1696.5699462890625 1687.970947265625 1679.1529541015625 1672.904052734375 1667.344970703125 1662.5860595703125 1659.8270263671875 1658.6689453125 1656.4200439453125 1651.9110107421875 1645.1619873046875 1639.633056640625 1634.0150146484375 1628.5360107421875 1624.3170166015625 1617.677978515625 1607.1689453125 1594 1585.761962890625 1579.1729736328125 1575.7239990234375 1575.364990234375 1575.595947265625 1575.3179931640625 1573.718994140625 1569.5899658203125 1564.571044921875 1558.031982421875 1553.5040283203125 1552.4549560546875 1550.0360107421875 1548.18701171875 1542.16796875 1534.3990478515625 1522.8310546875 1514.1619873046875 1505.3929443359375 1491.89404296875 1482.2750244140625 1472.197021484375 1463.3580322265625 1451.1390380859375 1432.6199951171875 1416.291015625 1401.4630126953125 1389.823974609375 1380.9649658203125 1373.446044921875 1366.2469482421875 1357.259033203125 1367.6600341796875 1373.9320068359375 1379.4730224609375 1390.43505859375 1398.426025390625 1404.2879638671875 1412.009033203125 1420.010986328125 1436.7220458984375 1459.053955078125 1484.375 1502.3370361328125 1512.0479736328125 1534.7099609375 1560.5810546875 1580.512939453125 1610.2650146484375 1641.2259521484375 1666.3179931640625 1687.198974609375 1702.0909423828125 1714.9019775390625 1726.6939697265625 1741.5450439453125 1759.1070556640625 1778.8680419921875 1813.8299560546875 1838.4410400390625 1857.1729736328125 1871.2740478515625 1892.2060546875 1921.2569580078125 1936.0789794921875 1961.050048828125 1981.8819580078125 2008.512939453125 2038.175048828125 2065.466064453125 2087.968017578125 2113.989990234375 2132.77099609375 2153.18310546875 2196.924072265625 2279.81591796875 2314.507080078125 2374.68896484375 2425.429931640625 2458.862060546875 2459.943115234375 2430.735107421875 2429.324951171875 2429.324951171875 2439.428955078125 2452.450927734375 2478.052001953125 2505.884033203125 2536.764892578125 2592.797119140625 2617.5791015625 2568.5400390625 2475.162109375 2418.0029296875 2360.635009765625 2300.22607421875 2271.197998046875 2254.3291015625 2242.490966796875 2236.382080078125 2237.884033203125 2254.705078125 2272.806884765625 2315.157958984375 2352.178955078125 2329.990966796875 2308.4619140625 2305.763916015625 2296.294921875 2282.156982421875 2272.907958984375 2284.27001953125 2320.912109375 2353.2529296875 2359.784912109375 2356.385986328125 2349.818115234375 2383.279052734375 2413.672119140625 2429.214111328125 2430.2958984375 2427.847900390625 2429.77099609375 2430.722900390625 2444.39501953125 2456.70703125 2474.860107421875
2299.202880859375 2298.594970703125 2298.39697265625 2300.029052734375 2306.929931640625 2322.98193359375 2313.214111328125 2306.0859375 2291.547119140625 2269.589111328125 2256.450927734375 2247.282958984375 2240.465087890625 2232.1259765625 2224.4580078125 2218.179931640625 2212.662109375 2211.222900390625 2205.344970703125 2189.47705078125 2178.319091796875 2167.5400390625 2155.162109375 2147.23388671875 2136.196044921875 2111.16796875 2094.43896484375 2078.930908203125 2071.2529296875 2062.9150390625 2047.345947265625 2019.008056640625 1993.77001953125 1974.2320556640625 1957.0439453125 1947.4150390625 1937.8470458984375 1928.5989990234375 1924.1610107421875 1914.10205078125 1908.823974609375 1903.885986328125 1898.137939453125 1890.2989501953125 1888.3709716796875 1888.2640380859375 1888.2640380859375 1888.2640380859375 1888.2640380859375 1888.2640380859375 1888.2640380859375 1888.2640380859375 1888.2640380859375 1888.2640380859375 1888.2640380859375 1888.321044921875 1888.593017578125 1895.634033203125 1902.43603515625 1908.947998046875 1911.8399658203125 1911.02099609375 1903.873046875 1890.635009765625 1877.947021484375 1865.998046875 1861.9599609375 1858.8919677734375 1858.5140380859375 1859.6259765625 1865.43701171875 1866.678955078125 1871.23095703125 1874.802978515625 1876.85400390625 1879.095947265625 1879.6280517578125 1881.719970703125 1884.010986328125 1882.883056640625 1882.60498046875 1885.737060546875 1885.8280029296875 1884.969970703125 1886.1619873046875 1887.9940185546875 1887.375 1885.22705078125 1882.0679931640625 1877.2989501953125 1873.469970703125 1870.2010498046875 1866.623046875 1865.0439453125 1863.3349609375 1861.5860595703125 1859.8570556640625 1857.8389892578125 1857.030029296875 1856.531005859375 1858.322021484375 1858.9730224609375 1856.7049560546875 1860.0260009765625 1854.5570068359375 1846.8280029296875 1837.0689697265625 1830.300048828125 1825.35205078125 1821.4530029296875 1815.06396484375 1806.324951171875 1795.0860595703125 1783.0679931640625 1771.509033203125 1762.8299560546875 1754.6510009765625 1744.8919677734375 1736.7939453125 1727.4549560546875 1717.9759521484375 1710.8570556640625 1703.988037109375 1693.7099609375 1685.260986328125 1677.6619873046875 1671.7130126953125 1665.9739990234375 1661.56494140625 1660.406982421875 1660.0379638671875 1656.5589599609375 1650.7099609375 1644.1109619140625 1637.552978515625 1632.7939453125 1628.68505859375 1624.2559814453125 1614.366943359375 1602.1590576171875 1589.5899658203125 1581.5909423828125 1578.822021484375 1577.6629638671875 1578.89404296875 1578.885986328125 1577.7469482421875 1574.008056640625 1567.8489990234375 1561.5699462890625 1554.58203125 1553.6729736328125 1551.843994140625 1549.31494140625 1545.7659912109375 1540.0870361328125 1532.529052734375 1523.77001953125 1515.06103515625 1506.08203125 1493.302978515625 1483.5450439453125 1472.8759765625 1463.9169921875 1447.2979736328125 1435.8790283203125 1426.06103515625 1412.251953125 1397.3929443359375 1382.5240478515625 1375.4749755859375 1365.2359619140625 1364.157958984375 1371.4189453125 1377.31103515625 1381.6319580078125 1390.323974609375 1402.324951171875 1411.3570556640625 1417.447998046875 1426.47998046875 1437.9520263671875 1452.5830078125 1473.7249755859375 1489.7359619140625 1506.258056640625 1529.3790283203125 1561.490966796875 1579.052001953125 1601.7239990234375 1628.2049560546875 1653.886962890625 1686.927978515625 1703.199951171875 1717.9610595703125 1732.4429931640625 1747.85400390625 1765.2760009765625 1786.116943359375 1826.958984375 1851.800048828125 1867.3719482421875 1889.553955078125 1904.385009765625 1930.18701171875 1948.5379638671875 1969.5899658203125 1982.8809814453125 2010.4129638671875 2028.553955078125 2053.7060546875 2077.1669921875 2103.2490234375 2126.699951171875 2152.89208984375 2199.79296875 2250.925048828125 2307.256103515625 2398.837890625 2434.529052734375 2455.37109375 2488.452880859375 2450.22412109375 2438.31591796875 2444.007080078125 2448.68896484375 2454.800048828125 2488.652099609375 2507.282958984375 2534.844970703125 2558.416015625 2603.43798828125 2568.218994140625 2479.0810546875 2439.281982421875 2405.884033203125 2339.554931640625 2293.4970703125 2278.928955078125 2259.93994140625 2253.882080078125 2254.343017578125 2280.965087890625 2332.736083984375 2356.126953125 2394.428955078125 2369.510009765625 2352.251953125 2325.633056640625 2317.60498046875 2314.14599609375 2302.14794921875 2297.569091796875 2337.051025390625 2375.69189453125 2388.593994140625 2381.10595703125 2375.927001953125 2377.658935546875 2398.31103515625 2399.222900390625 2404.9560546875 2423.35791015625 2430.659912109375 2431.052001953125 2439.7451171875 2456.386962890625 2473.7490234375
