ncols        231
nrows        31
xllcorner    624742
yllcorner    5137198
cellsize     30.000000000000
NODATA_value  -9999
-9999 -9999 -9999 -9999 -9999 -9999 -9999 -9999 -9999 -9999 -9999 -9999 -9999 -9999 -9999 -9999 -9999 -9999 -9999 -9999 -9999 -9999 -9999 -9999 -9999 -9999 -9999 -9999 -9999 -9999 -9999 -9999 -9999 -9999 -9999 -9999 -9999 -9999 -9999 -9999 -9999 -9999 -9999 -9999 -9999 -9999 -9999 -9999 -9999 -9999 -9999 -9999 -9999 -9999 -9999 -9999 -9999 -9999 -9999 -9999 -9999 -9999 -9999 -9999 -9999 -9999 -9999 -9999 -9999 -9999 -9999 -9999 -9999 -9999 -9999 -9999 -9999 -9999 -9999 -9999 -9999 -9999 -9999 -9999 -9999 -9999 2579.5859375 2594.427001953125 2595.248046875 2535.110107421875 2528.180908203125 2538.632080078125 2517.262939453125 2508.5849609375 2513.14599609375 2524.757080078125 2535.009033203125 2529.179931640625 2512.15087890625 2488.39306640625 2464.2939453125 2438.14501953125 2419.26708984375 2401.14794921875 2389.279052734375 2377.300048828125 2360.0419921875 2345.222900390625 2327.2470703125 2304.172119140625 2280.653076171875 2259.7099609375 2239.736083984375 2217.3740234375 2197.14208984375 2181.658935546875 2156.8701171875 2141.070068359375 2126.262939453125 2108.4560546875 2092.326904296875 2077.89404296875 2062.366943359375 2041.72802734375 2019.760009765625 2002.675048828125 1991.239990234375 1981.240966796875 1973.31494140625 1967.657958984375 1962.666015625 1960.1839599609375 1952.4610595703125 1939.197998046875 1923.1519775390625 1908.8609619140625 1895.0360107421875 1879.876953125 1862.404052734375 1847.239990234375 1834.4949951171875 1826.6829833984375 1818.1590576171875 1808.2030029296875 1793.510009765625 1780.946044921875 1766.3990478515625 1748.06494140625 1728.5250244140625 1707.2989501953125 1690.989013671875 1677.458984375 1666.550048828125 1656.1600341796875 1648.219970703125 1638.0970458984375 1616.7740478515625 1595.342041015625 1575.7850341796875 1557.843017578125 1542.14599609375 1530.3349609375 1518.9859619140625 1502.9219970703125 1488.635009765625 1477.7060546875 1469.9539794921875 1458.0760498046875 1443.2239990234375 1426.7159423828125 1410.3199462890625 1392.218994140625 1382.375 1374.1820068359375 1366.10302734375 1356.1529541015625 1330.9010009765625 1318.1729736328125 1324.4649658203125 1340.125 1362.8289794921875 1382.4410400390625 1400.0870361328125 1414.906982421875 1433.5269775390625 1451.7060546875 1464.7950439453125 1500.052001953125 1529.93505859375 1549.052001953125 1582.362060546875 1600.5 1632.4959716796875 1658.7650146484375 1684.041015625 1707.06396484375 1731.1009521484375 1743.6739501953125 1752.4449462890625 1762.8050537109375 1781.9830322265625 1795.541015625 1811.157958984375 1831.2239990234375 1856.6319580078125 1872.8170166015625 1899.9969482421875 1925.64501953125 1935.470947265625 1954.2679443359375 1977.0479736328125 1991.3499755859375 2011.4119873046875 2029.491943359375 2041.635009765625 2055.552001953125 2069.39599609375 2085.777099609375 2103.64404296875 2125.931884765625 2150.6259765625 2169.843017578125 2185.58203125 2199.64111328125 2211.56591796875 2225.02490234375 2235.1220703125 2246.18408203125 2251.762939453125 2257.804931640625 2262.925048828125
-9999 -9999 -9999 -9999 -9999 -9999 -9999 -9999 -9999 -9999 -9999 -9999 -9999 -9999 -9999 -9999 -9999 -9999 -9999 -9999 -9999 -9999 -9999 -9999 -9999 -9999 -9999 -9999 -9999 -9999 -9999 -9999 -9999 -9999 -9999 -9999 -9999 -9999 -9999 -9999 -9999 -9999 -9999 -9999 -9999 -9999 -9999 -9999 -9999 -9999 -9999 -9999 -9999 -9999 -9999 -9999 -9999 -9999 -9999 -9999 -9999 -9999 -9999 -9999 -9999 -9999 -9999 -9999 -9999 -9999 -9999 -9999 -9999 -9999 -9999 -9999 -9999 -9999 -9999 -9999 -9999 -9999 -9999 -9999 -9999 -9999 2523.297119140625 2530.568115234375 2530.89892578125 2523.48095703125 2499.14208984375 2502.14306640625 2503.875 2494.4560546875 2493.116943359375 2499.97802734375 2501.3701171875 2508.52099609375 2517.162109375 2498.674072265625 2475.864990234375 2458.446044921875 2441.508056640625 2417.87890625 2403.199951171875 2391.721923828125 2374.202880859375 2359.2041015625 2339.096923828125 2314.080078125 2287.39404296875 2263.7099609375 2240.616943359375 2218.14501953125 2196.080078125 2177.235107421875 2162.083984375 2143.162109375 2126.09912109375 2108.259033203125 2090.455078125 2074.944091796875 2055.635009765625 2035.1920166015625 2014.2900390625 1996.5699462890625 1984.053955078125 1977.373046875 1968.177001953125 1962.364013671875 1956.260986328125 1953.552978515625 1946.1590576171875 1934.259033203125 1919.3270263671875 1902.60205078125 1884.43798828125 1870.8809814453125 1854.8310546875 1842.8499755859375 1833.4320068359375 1827.8900146484375 1817.8349609375 1808.343994140625 1795.9100341796875 1783.1259765625 1768.0849609375 1743.60498046875 1722.8509521484375 1705.2679443359375 1689.155029296875 1676.842041015625 1665.4759521484375 1656.5830078125 1648.0670166015625 1637.6300048828125 1625.676025390625 1607.4520263671875 1591.675048828125 1570.39599609375 1558.08203125 1546.635009765625 1530.822021484375 1509.52001953125 1496.739013671875 1487.0479736328125 1479.322998046875 1465.990966796875 1447.0140380859375 1431.947998046875 1419.48095703125 1405.7449951171875 1387.885986328125 1374.010009765625 1362.5689697265625 1353.7919921875 1331.1190185546875 1315.011962890625 1319.02197265625 1333.531005859375 1349.239013671875 1365.7130126953125 1383.6319580078125 1401.8929443359375 1420.323974609375 1434.4300537109375 1459.1070556640625 1506.7889404296875 1542.68505859375 1565.9239501953125 1586.7469482421875 1610.5479736328125 1662.2840576171875 1690.843994140625 1693.20703125 1713.885986328125 1732.7249755859375 1744.366943359375 1759.8070068359375 1762.89697265625 1775.0670166015625 1784.113037109375 1798.510009765625 1822.0999755859375 1844.9449462890625 1866.280029296875 1882.7430419921875 1906.1929931640625 1918.5810546875 1952.35205078125 1957.9749755859375 1976.2149658203125 1998.5589599609375 2009.81298828125 2023.303955078125 2039.9949951171875 2058.783935546875 2081.9169921875 2106.883056640625 2128.011962890625 2147.43408203125 2164.52001953125 2180.947998046875 2192.760009765625 2202.10888671875 2213.20703125 2221.6650390625 2227.291015625 2234.572021484375 2240.465087890625 2249.01806640625
-9999 -9999 -9999 -9999 -9999 -9999 -9999 -9999 -9999 -9999 -9999 -9999 -9999 -9999 -9999 -9999 -9999 -9999 -9999 -9999 -9999 -9999 -9999 -9999 -9999 -9999 -9999 -9999 -9999 -9999 -9999 -9999 -9999 -9999 -9999 -9999 -9999 -9999 -9999 -9999 -9999 -9999 -9999 -9999 -9999 -9999 -9999 -9999 -9999 -9999 -9999 -9999 -9999 -9999 -9999 -9999 -9999 -9999 -9999 -9999 -9999 -9999 -9999 -9999 -9999 -9999 -9999 -9999 -9999 -9999 -9999 -9999 -9999 -9999 -9999 -9999 -9999 -9999 -9999 -9999 -9999 -9999 -9999 -9999 -9999 -9999 2486.3779296875 2487.14892578125 2498.5 2502.802001953125 2473.032958984375 2463.85400390625 2465.555908203125 2474.096923828125 2480.528076171875 2483.679931640625 2481.35107421875 2485.19189453125 2496.263916015625 2507.965087890625 2487.56591796875 2469.68798828125 2450.868896484375 2434.010009765625 2416.531982421875 2402.423095703125 2388.02392578125 2371.875 2349.91796875 2325.56396484375 2294.80908203125 2269.87890625 2244.574951171875 2223.26904296875 2201.827880859375 2180.01708984375 2163.239990234375 2148.7119140625 2132.569091796875 2111.44091796875 2090.943115234375 2075.416015625 2050.89599609375 2028.583984375 2002.626953125 1989.9010009765625 1980.4449462890625 1974.72998046875 1968.76904296875 1963.907958984375 1955.68994140625 1948.52197265625 1935.8170166015625 1925.7939453125 1913.18994140625 1899.60595703125 1881.8580322265625 1870.009033203125 1851.9539794921875 1840.2049560546875 1833.842041015625 1827.8260498046875 1816.678955078125 1805.4599609375 1794.2120361328125 1780.4000244140625 1762.9100341796875 1744.1199951171875 1723.7650146484375 1705.614013671875 1691.383056640625 1679.156982421875 1668.4019775390625 1660.0770263671875 1655.262939453125 1649.5870361328125 1636.3819580078125 1620.7139892578125 1600.9219970703125 1589.1109619140625 1577.06103515625 1557.3929443359375 1536.593994140625 1520.655029296875 1503.56298828125 1493.511962890625 1482.6929931640625 1466.06005859375 1449.9649658203125 1434.1209716796875 1419.6910400390625 1409.625 1395.031005859375 1383.011962890625 1363.85400390625 1352.3179931640625 1334.3310546875 1315.376953125 1311.7490234375 1327.77099609375 1343.8900146484375 1360.58203125 1378.0050048828125 1393.136962890625 1407.833984375 1423.14599609375 1461.8819580078125 1505.9100341796875 1548.072998046875 1573.666015625 1599.39697265625 1622.616943359375 1653.791015625 1693.47705078125 1716.4239501953125 1727.72802734375 1734.760986328125 1741.541015625 1744.696044921875 1752.115966796875 1762.4029541015625 1774.1519775390625 1784.4730224609375 1804.9610595703125 1830.6290283203125 1849.386962890625 1867.029052734375 1890.0340576171875 1901.5050048828125 1924.7869873046875 1941.6600341796875 1959.0009765625 1977.1920166015625 2001.136962890625 2024.4000244140625 2046.7559814453125 2066.672119140625 2086.60107421875 2103.449951171875 2122.51806640625 2139.636962890625 2156.549072265625 2170.587890625 2181.73193359375 2187.06103515625 2195.7451171875 2202.345947265625 2207.759033203125 2216.2548828125 2224.72509765625 2237.281005859375
-9999 -9999 -9999 -9999 -9999 -9999 -9999 -9999 -9999 -9999 -9999 -9999 -9999 -9999 -9999 -9999 -9999 -9999 -9999 -9999 -9999 -9999 -9999 -9999 -9999 -9999 -9999 -9999 -9999 -9999 -9999 -9999 -9999 -9999 -9999 -9999 -9999 -9999 -9999 -9999 -9999 -9999 -9999 -9999 -9999 -9999 -9999 -9999 -9999 -9999 -9999 -9999 -9999 -9999 -9999 -9999 -9999 -9999 -9999 -9999 -9999 -9999 -9999 -9999 -9999 -9999 -9999 -9999 -9999 -9999 -9999 -9999 -9999 -9999 -9999 -9999 -9999 -9999 -9999 -9999 -9999 -9999 -9999 -9999 -9999 2458.616943359375 2452.428955078125 2443.39990234375 2457.85107421875 2480.39306640625 2476.424072265625 2441.074951171875 2440.76708984375 2450.8779296875 2464.819091796875 2471.031005859375 2465.8720703125 2467.193115234375 2478.485107421875 2512.176025390625 2497.737060546875 2479.0791015625 2462.989990234375 2442.321044921875 2427.29296875 2418.573974609375 2401.2451171875 2379.68701171875 2355.72802734375 2327.761962890625 2301.0859375 2275.218994140625 2249.0380859375 2226.8740234375 2205.243896484375 2186.071044921875 2168.97900390625 2153.3330078125 2136.047119140625 2113.1630859375 2095.2119140625 2075.695068359375 2053.8759765625 2034.0350341796875 2008.3790283203125 1996.4100341796875 1987.8360595703125 1981.81494140625 1972.7440185546875 1965.2039794921875 1954.45703125 1944.845947265625 1933.866943359375 1921.14794921875 1909.4720458984375 1895.501953125 1886.012939453125 1873.6839599609375 1852.0009765625 1842.740966796875 1836.0870361328125 1825.3170166015625 1815.112060546875 1802.7130126953125 1792.583984375 1783.7659912109375 1764.7469482421875 1745.800048828125 1728.5419921875 1711.928955078125 1696.6669921875 1686.8929443359375 1679.7669677734375 1672.6669921875 1665.1939697265625 1653.43603515625 1643.9139404296875 1628.31005859375 1614.384033203125 1603.4129638671875 1587.7509765625 1569.1099853515625 1551.6719970703125 1534.0889892578125 1518.9849853515625 1503.0009765625 1491.25 1473.885009765625 1454.7020263671875 1439.2099609375 1426.510986328125 1413.7080078125 1397.4439697265625 1385.2080078125 1368.06005859375 1349.1319580078125 1341.5179443359375 1319.010986328125 1310.467041015625 1322.6600341796875 1339.114013671875 1354.177001953125 1368.5460205078125 1381.4830322265625 1391.425048828125 1397.0670166015625 1445.583984375 1489.9320068359375 1548.1939697265625 1578.1929931640625 1602.7850341796875 1629.345947265625 1674.5989990234375 1695.6300048828125 1715.6669921875 1715.470947265625 1718.822021484375 1728.3489990234375 1733.885986328125 1745.365966796875 1756.1099853515625 1769.9410400390625 1784.85498046875 1798.5489501953125 1815.072998046875 1835.5550537109375 1855.4339599609375 1877.552978515625 1888.1839599609375 1907.2960205078125 1930.0760498046875 1955.2860107421875 1975.718017578125 1999.0450439453125 2022.3759765625 2045.4549560546875 2064.680908203125 2083.904052734375 2097.623046875 2113.02490234375 2126.7900390625 2140.631103515625 2152.677978515625 2161.1220703125 2168.451904296875 2177.7080078125 2184.592041015625 2190.090087890625 2199.044921875 2211.35693359375 2223.81689453125
-9999 -9999 -9999 -9999 -9999 -9999 -9999 -9999 -9999 -9999 -9999 -9999 -9999 -9999 -9999 -9999 -9999 -9999 -9999 -9999 -9999 -9999 -9999 -9999 -9999 -9999 -9999 -9999 -9999 -9999 -9999 -9999 -9999 -9999 -9999 -9999 -9999 -9999 -9999 -9999 -9999 -9999 -9999 -9999 -9999 -9999 -9999 -9999 -9999 -9999 -9999 -9999 -9999 -9999 -9999 -9999 -9999 -9999 -9999 -9999 -9999 -9999 -9999 -9999 -9999 -9999 -9999 -9999 -9999 -9999 -9999 -9999 -9999 -9999 -9999 -9999 -9999 -9999 -9999 -9999 -9999 -9999 -9999 -9999 -9999 -9999 2419.06005859375 2408.791015625 2403.363037109375 2400.98388671875 2418.64501953125 2417.60693359375 2419.3779296875 2428.408935546875 2441.2109375 2449.64208984375 2455.722900390625 2452.625 2462.5859375 2486.3369140625 2500.839111328125 2493.169921875 2473.87109375 2455.712890625 2439.803955078125 2421.344970703125 2398.1669921875 2374.1279296875 2349.509033203125 2326.64111328125 2304.81201171875 2278.0830078125 2253.85498046875 2231.635986328125 2211.8369140625 2193.798095703125 2173.76904296875 2156.490966796875 2139.251953125 2117.873046875 2096.904052734375 2078.925048828125 2059.845947265625 2041.5479736328125 2023.6090087890625 2004.6600341796875 1991.6510009765625 1981.3919677734375 1972.0240478515625 1967.344970703125 1956.89599609375 1946.1070556640625 1932.8179931640625 1918.4990234375 1907.1810302734375 1894.9520263671875 1886.6429443359375 1873.9940185546875 1863.7349853515625 1852.4859619140625 1837.7080078125 1823.6290283203125 1815.8900146484375 1807.4210205078125 1795.842041015625 1784.6629638671875 1773.594970703125 1754.2459716796875 1737.7469482421875 1723.177978515625 1712.6689453125 1703.9000244140625 1691.9219970703125 1679.0030517578125 1667.9339599609375 1659.18505859375 1650.0159912109375 1638.7769775390625 1623.9189453125 1611.7099609375 1599.27099609375 1577.741943359375 1556.31298828125 1544.654052734375 1528.2860107421875 1511.95703125 1495.218017578125 1478.3189697265625 1457.8199462890625 1444.3709716796875 1429.9520263671875 1418.5439453125 1403.85498046875 1387.60595703125 1365.81201171875 1344.970947265625 1339.9429931640625 1323.5789794921875 1305.251953125 1319.9000244140625 1331.748046875 1344.4320068359375 1357.0589599609375 1366.43603515625 1374.8499755859375 1379.31103515625 1408.031005859375 1484.0799560546875 1532.5570068359375 1569.9520263671875 1599.8330078125 1627.654052734375 1673.9239501953125 1686.9090576171875 1694.426025390625 1697.342041015625 1706.7960205078125 1720.699951171875 1732.3289794921875 1743.56103515625 1754.85595703125 1768.0400390625 1784.115966796875 1798.4129638671875 1815.35302734375 1832.1319580078125 1848.8759765625 1870.68701171875 1882.4840087890625 1905.5479736328125 1928.220947265625 1953.3280029296875 1975.238037109375 2001.2559814453125 2021.3409423828125 2043.4189453125 2060.2880859375 2074.06103515625 2085.991943359375 2097.8740234375 2110.31103515625 2123.282958984375 2132.041015625 2137.89892578125 2147.501953125 2151.56005859375 2157.51611328125 2170.236083984375 2183.30810546875 2201.719970703125 2212.885986328125
-9999 -9999 -9999 -9999 -9999 -9999 -9999 -9999 -9999 -9999 -9999 -9999 -9999 -9999 -9999 -9999 -9999 -9999 -9999 -9999 -9999 -9999 -9999 -9999 -9999 -9999 -9999 -9999 -9999 -9999 -9999 -9999 -9999 -9999 -9999 -9999 -9999 -9999 -9999 -9999 -9999 -9999 -9999 -9999 -9999 -9999 -9999 -9999 -9999 -9999 -9999 -9999 -9999 -9999 -9999 -9999 -9999 -9999 -9999 -9999 -9999 -9999 -9999 -9999 -9999 -9999 -9999 -9999 -9999 -9999 -9999 -9999 -9999 -9999 -9999 -9999 -9999 -9999 -9999 -9999 -9999 -9999 -9999 -9999 -9999 -9999 2388.06103515625 2387.6220703125 2382.904052734375 2380.534912109375 2389.8359375 2395.05810546875 2397.0791015625 2407.260009765625 2420.39208984375 2431.73291015625 2438.444091796875 2438.555908203125 2451.636962890625 2470.867919921875 2490.93994140625 2501.631103515625 2485.721923828125 2469.424072265625 2447.5048828125 2424.6259765625 2402.7880859375 2383.948974609375 2358.56103515625 2328.822021484375 2299.93310546875 2277.89501953125 2256.10595703125 2236.556884765625 2217.51806640625 2197.6201171875 2177.94091796875 2159.172119140625 2138.633056640625 2117.39404296875 2099.205078125 2082.6669921875 2063.258056640625 2047.01904296875 2030.199951171875 2010.3609619140625 1998.741943359375 1990.323974609375 1980.7449951171875 1967.166015625 1956.4169921875 1945.39794921875 1934.428955078125 1924.9110107421875 1906.001953125 1898.27294921875 1889.833984375 1882.364990234375 1874.4659423828125 1858.258056640625 1841.0789794921875 1827.719970703125 1821.5009765625 1814.251953125 1803.3330078125 1790.574951171875 1777.9659423828125 1765.0469970703125 1749.677978515625 1732.8389892578125 1721.989990234375 1712.4620361328125 1700.85302734375 1682.634033203125 1669.2149658203125 1664.2559814453125 1653.386962890625 1642.4990234375 1631.469970703125 1619.1610107421875 1608.4620361328125 1584.6729736328125 1565.2939453125 1551.0760498046875 1534.2669677734375 1517.5980224609375 1499.6689453125 1480.97998046875 1461.2010498046875 1445.9730224609375 1432.2039794921875 1419.10498046875 1405.7559814453125 1390.0269775390625 1368.5030517578125 1342.4649658203125 1336.3160400390625 1321.8349609375 1302.4300537109375 1312.56298828125 1324.4620361328125 1335.2060546875 1345.303955078125 1352.7540283203125 1358.85205078125 1371.2559814453125 1401.8280029296875 1469.7149658203125 1521.14794921875 1562.782958984375 1593.1409912109375 1624.1689453125 1665.85302734375 1672.386962890625 1672.7659912109375 1679.083984375 1699.0050048828125 1716.6300048828125 1734.9620361328125 1744.18603515625 1755.0150146484375 1767.364013671875 1785.470947265625 1801.0389404296875 1819.0169677734375 1835.5469970703125 1852.5469970703125 1873.0140380859375 1886.2490234375 1908.5479736328125 1927.9990234375 1950.0439453125 1971.6590576171875 1996.1939697265625 2015.5810546875 2033.6650390625 2047.095947265625 2060.779052734375 2070.64208984375 2077.964111328125 2090.43408203125 2101.93505859375 2111.087890625 2116.43310546875 2127.865966796875 2128.780029296875 2135.35302734375 2154.806884765625 2179.18310546875 2193.3349609375 2201.2958984375
-9999 -9999 -9999 -9999 -9999 -9999 -9999 -9999 -9999 -9999 -9999 -9999 -9999 -9999 -9999 -9999 -9999 -9999 -9999 -9999 -9999 -9999 -9999 -9999 -9999 -9999 -9999 -9999 -9999 -9999 -9999 -9999 -9999 -9999 -9999 -9999 -9999 -9999 -9999 -9999 -9999 -9999 -9999 -9999 -9999 -9999 -9999 -9999 -9999 -9999 -9999 -9999 -9999 -9999 -9999 -9999 -9999 -9999 -9999 -9999 -9999 -9999 -9999 -9999 -9999 -9999 -9999 -9999 -9999 -9999 -9999 -9999 -9999 -9999 -9999 -9999 -9999 -9999 -9999 -9999 -9999 -9999 -9999 -9999 -9999 -9999 2370.3720703125 2368.68310546875 2363.594970703125 2360.196044921875 2369.26708984375 2373.9990234375 2377.239990234375 2387.051025390625 2398.23291015625 2413.52392578125 2426.514892578125 2431.886962890625 2441.367919921875 2465.0400390625 2490.611083984375 2502.402099609375 2488.7041015625 2471.364990234375 2449.916015625 2417.468017578125 2394.37890625 2371.219970703125 2350.132080078125 2324.423095703125 2300.444091796875 2278.27587890625 2257.2470703125 2242.407958984375 2221.60009765625 2202.051025390625 2182.922119140625 2163.6630859375 2141.98388671875 2123.3349609375 2104.947021484375 2085.3779296875 2071.888916015625 2054.679931640625 2040.531005859375 2027.373046875 2014.6939697265625 2007.2650146484375 2001.85595703125 1986.7969970703125 1968.5179443359375 1953.800048828125 1945.9110107421875 1937.77197265625 1919.873046875 1902.134033203125 1896.425048828125 1891.7569580078125 1878.3580322265625 1868.0989990234375 1850.0999755859375 1835.5909423828125 1829.9119873046875 1821.6729736328125 1809.0250244140625 1799.696044921875 1786.8370361328125 1770.2679443359375 1757.029052734375 1743.3499755859375 1732.8819580078125 1721.282958984375 1704.614013671875 1685.425048828125 1671.93603515625 1662.39697265625 1651.4090576171875 1640.5 1633.260986328125 1622.552001953125 1611.012939453125 1591.5240478515625 1573.3759765625 1554.677001953125 1537.2080078125 1524.208984375 1506.47998046875 1486.77099609375 1464.9029541015625 1446.5240478515625 1430.5150146484375 1417.696044921875 1403.0369873046875 1388.5179443359375 1370.2099609375 1341.0660400390625 1331.6209716796875 1326.6590576171875 1302.364013671875 1306.946044921875 1316.1309814453125 1327.323974609375 1334.6910400390625 1340.7230224609375 1348.9730224609375 1368.3809814453125 1386.27099609375 1462.0589599609375 1510.633056640625 1551.759033203125 1579.20703125 1601.239013671875 1652.1800537109375 1652.886962890625 1654.718017578125 1677.0009765625 1691.5970458984375 1711.5260009765625 1730.1510009765625 1742.824951171875 1760.4410400390625 1770.3179931640625 1788.2020263671875 1802.719970703125 1818.7469482421875 1836.7669677734375 1854.8809814453125 1875.0560302734375 1885.98095703125 1909.3179931640625 1928.9530029296875 1947.93603515625 1968.14404296875 1987.4840087890625 2006.5780029296875 2021.3909912109375 2035.7879638671875 2044.9139404296875 2052.2109375 2059.916015625 2073.583984375 2084.06005859375 2090.6201171875 2099.944091796875 2106.263916015625 2109.126953125 2123.284912109375 2149.89404296875 2167.172119140625 2178.820068359375 2187.56103515625
-9999 -9999 -9999 -9999 -9999 -9999 -9999 -9999 -9999 -9999 -9999 -9999 -9999 -9999 -9999 -9999 -9999 -9999 -9999 -9999 -9999 -9999 -9999 -9999 -9999 -9999 -9999 -9999 -9999 -9999 -9999 -9999 -9999 -9999 -9999 -9999 -9999 -9999 -9999 -9999 -9999 -9999 -9999 -9999 -9999 -9999 -9999 -9999 -9999 -9999 -9999 -9999 -9999 -9999 -9999 -9999 -9999 -9999 -9999 -9999 -9999 -9999 -9999 -9999 -9999 -9999 -9999 -9999 -9999 -9999 -9999 -9999 -9999 -9999 -9999 -9999 -9999 -9999 -9999 -9999 -9999 -9999 -9999 -9999 -9999 -9999 -9999 2353.864013671875 2345.89599609375 2344.326904296875 2349.68798828125 2354.510009765625 2357.200927734375 2364.822998046875 2376.5439453125 2394.054931640625 2410.306884765625 2420.407958984375 2428.408935546875 2441.60107421875 2476.951904296875 2488.242919921875 2483.034912109375 2464.365966796875 2443.327880859375 2415.029052734375 2389.75 2365.152099609375 2345.443115234375 2321.02392578125 2302.285888671875 2279.076904296875 2261.837890625 2246.010009765625 2229.131103515625 2211.89208984375 2191.532958984375 2170.7939453125 2150.055908203125 2130.4169921875 2111.278076171875 2097.698974609375 2084.72998046875 2073.470947265625 2059.843017578125 2044.333984375 2031.2550048828125 2022.406005859375 2017.217041015625 2001.64794921875 1985.93994140625 1969.9610595703125 1956.1920166015625 1945.85302734375 1925.2239990234375 1914.324951171875 1912.2869873046875 1902.258056640625 1886.529052734375 1877.8599853515625 1867.551025390625 1849.1219482421875 1840.303955078125 1826.2449951171875 1809.2760009765625 1803.876953125 1791.718017578125 1775.7889404296875 1760.3809814453125 1749.991943359375 1739.093017578125 1726.553955078125 1711.824951171875 1696.5159912109375 1678.508056640625 1665.4189453125 1654.9200439453125 1644.3409423828125 1635.241943359375 1625.9730224609375 1612.9439697265625 1593.0260009765625 1577.0670166015625 1558.447998046875 1539.739013671875 1527.9000244140625 1510.740966796875 1489.343017578125 1466.154052734375 1445.2650146484375 1428.7459716796875 1415.47705078125 1398.1180419921875 1381.4200439453125 1366.906005859375 1339.134033203125 1328.9320068359375 1324.60498046875 1305.405029296875 1300.824951171875 1309.5460205078125 1317.64501953125 1325.2220458984375 1329.4990234375 1340.9110107421875 1361.0849609375 1382.384033203125 1454.9110107421875 1486.1929931640625 1543.343017578125 1569.916015625 1591.822021484375 1618.751953125 1633.1309814453125 1649.5179443359375 1671.301025390625 1688.123046875 1703.970947265625 1720.9530029296875 1737.7120361328125 1756.009033203125 1766.47802734375 1784.845947265625 1801.748046875 1818.7740478515625 1839.3580322265625 1855.3489990234375 1871.9300537109375 1885.800048828125 1904.73095703125 1927.6800537109375 1947.1700439453125 1966.0810546875 1980.405029296875 1998.720947265625 2012.248046875 2026.8489990234375 2033.5830078125 2038.7130126953125 2042.5279541015625 2059.656982421875 2067.907958984375 2069.910888671875 2086.803955078125 2083.656005859375 2095.760986328125 2116.294921875 2134.501953125 2151.43798828125 2164.89208984375 2176.093994140625
-9999 -9999 -9999 -9999 -9999 -9999 -9999 -9999 -9999 -9999 -9999 -9999 -9999 -9999 -9999 -9999 -9999 -9999 -9999 -9999 -9999 -9999 -9999 -9999 -9999 -9999 -9999 -9999 -9999 -9999 -9999 -9999 -9999 -9999 -9999 -9999 -9999 -9999 -9999 -9999 -9999 -9999 -9999 -9999 -9999 -9999 -9999 -9999 -9999 -9999 -9999 -9999 -9999 -9999 -9999 -9999 -9999 -9999 -9999 -9999 -9999 -9999 -9999 -9999 -9999 -9999 -9999 -9999 -9999 -9999 -9999 -9999 -9999 -9999 -9999 -9999 -9999 -9999 -9999 -9999 -9999 -9999 -9999 -9999 -9999 -9999 -9999 -9999 2342.927001953125 2330.677978515625 2332.169921875 2336.5009765625 2336.592041015625 2346.3740234375 2360.955078125 2375.14599609375 2391.887939453125 2405.12890625 2416.9599609375 2431.912109375 2449.73291015625 2470.2451171875 2473.865966796875 2455.096923828125 2433.9189453125 2411.260009765625 2387.720947265625 2367.452880859375 2347.48388671875 2322.946044921875 2302.35693359375 2281.51806640625 2266.2099609375 2249.7109375 2232.58203125 2213.27294921875 2194.39404296875 2172.156005859375 2154.4970703125 2139.587890625 2125.43896484375 2112.179931640625 2100.2509765625 2090.73291015625 2073.553955078125 2057.534912109375 2045.3759765625 2038.7669677734375 2025.968994140625 2008.4200439453125 1995.0810546875 1980.60205078125 1966.8330078125 1952.7840576171875 1939.925048828125 1936.237060546875 1922.927978515625 1909.0789794921875 1894.9200439453125 1885.3509521484375 1872.2220458984375 1856.343994140625 1846.9749755859375 1833.85595703125 1818.8070068359375 1804.988037109375 1795.198974609375 1780.9610595703125 1765.261962890625 1750.2230224609375 1741.7939453125 1730.574951171875 1718.0760498046875 1707.2979736328125 1690.3990478515625 1675.2099609375 1664.3310546875 1655.9320068359375 1646.3929443359375 1631.2249755859375 1615.3360595703125 1593.0570068359375 1574.998046875 1551.5889892578125 1538.72998046875 1518.6719970703125 1498.613037109375 1477.7039794921875 1458.385009765625 1441.2459716796875 1424.1070556640625 1407.3380126953125 1392.3299560546875 1374.6510009765625 1355.656982421875 1338.9310302734375 1330.06298828125 1324.751953125 1311.3089599609375 1294.4820556640625 1302.4200439453125 1307.916015625 1314.89697265625 1320.406005859375 1331.3900146484375 1354.1639404296875 1392.9659423828125 1442.9759521484375 1474.1209716796875 1537.196044921875 1571.1629638671875 1587.260986328125 1602.9029541015625 1620.02001953125 1642.7879638671875 1663.14404296875 1682.0889892578125 1695.9820556640625 1714.1290283203125 1732.3800048828125 1750.6639404296875 1761.4969482421875 1783.3499755859375 1802.8260498046875 1819.56005859375 1842.5679931640625 1859.220947265625 1872.7960205078125 1885.260009765625 1902.81396484375 1923.532958984375 1947.5479736328125 1962.7530517578125 1977.9329833984375 1993.5279541015625 2006.60595703125 2014.385986328125 2019.3919677734375 2024.697021484375 2029.6729736328125 2044.16796875 2047.333984375 2051.593994140625 2062.712890625 2068.612060546875 2086.6298828125 2105.175048828125 2126.1259765625 2142.73095703125 2155.5048828125 2159.73291015625
-9999 -9999 -9999 -9999 -9999 -9999 -9999 -9999 -9999 -9999 -9999 -9999 -9999 -9999 -9999 -9999 -9999 -9999 -9999 -9999 -9999 -9999 -9999 -9999 -9999 -9999 -9999 -9999 -9999 -9999 -9999 -9999 -9999 -9999 -9999 -9999 -9999 -9999 -9999 -9999 -9999 -9999 -9999 -9999 -9999 -9999 -9999 -9999 -9999 -9999 -9999 -9999 -9999 -9999 -9999 -9999 -9999 -9999 -9999 -9999 -9999 -9999 -9999 -9999 -9999 -9999 -9999 -9999 -9999 -9999 -9999 -9999 -9999 -9999 -9999 -9999 -9999 -9999 -9999 -9999 -9999 -9999 -9999 -9999 -9999 -9999 -9999 -9999 -9999 2334.739013671875 2320.200927734375 2319.98193359375 2320.23291015625 2328.965087890625 2341.01611328125 2356.1279296875 2370.388916015625 2387.35009765625 2404.02197265625 2422.113037109375 2439.884033203125 2458.446044921875 2465.70703125 2457.5791015625 2434.820068359375 2410.861083984375 2386.443115234375 2365.14404296875 2345.56494140625 2326.156982421875 2304.337890625 2283.85009765625 2266.9208984375 2250.681884765625 2231.952880859375 2209.43505859375 2195.426025390625 2184.1669921875 2166.028076171875 2152.839111328125 2141.989990234375 2128.56201171875 2113.593017578125 2102.114013671875 2082.985107421875 2066.27587890625 2050.027099609375 2040.5489501953125 2029.1500244140625 2016.1409912109375 2001.9820556640625 1990.27294921875 1979.7039794921875 1967.9759521484375 1956.636962890625 1946.1280517578125 1932.009033203125 1918.719970703125 1904.4410400390625 1891.593017578125 1875.2740478515625 1861.2650146484375 1847.2659912109375 1836.0970458984375 1825.0179443359375 1807.25 1793.0909423828125 1779.112060546875 1766.4429931640625 1752.9339599609375 1741.175048828125 1730.946044921875 1724.2080078125 1715.7490234375 1706.8499755859375 1696.821044921875 1681.33203125 1660.7230224609375 1644.2449951171875 1632.095947265625 1615.5069580078125 1592.8179931640625 1571.178955078125 1552.43994140625 1538.4820556640625 1525.532958984375 1504.6939697265625 1481.7950439453125 1459.635986328125 1436.927001953125 1417.958984375 1401.719970703125 1383.1910400390625 1365.991943359375 1351.3360595703125 1339.72802734375 1330.5589599609375 1322.8089599609375 1307.8389892578125 1293.02294921875 1296.487060546875 1301.0150146484375 1306.27099609375 1313.594970703125 1327.6729736328125 1347.8919677734375 1387.4000244140625 1432.2969970703125 1465.157958984375 1527.751953125 1552.3289794921875 1582.2889404296875 1598.833984375 1614.2960205078125 1633.7900390625 1644.5269775390625 1668.8260498046875 1685.3270263671875 1704.468994140625 1726.4620361328125 1745.9560546875 1759.886962890625 1780.1839599609375 1801.6810302734375 1818.1109619140625 1839.551025390625 1861.4110107421875 1874.8480224609375 1883.1839599609375 1901.2989501953125 1924.654052734375 1945.720947265625 1959.154052734375 1970.4300537109375 1985.3590087890625 1991.5059814453125 1997.5169677734375 2006.8270263671875 2010.27001953125 2017.3289794921875 2026.7540283203125 2025.508056640625 2035.031982421875 2046.7900390625 2061.8349609375 2083.06689453125 2103.845947265625 2124.37890625 2136.498046875 2141.75 2144.199951171875
-9999 -9999 -9999 -9999 -9999 -9999 -9999 -9999 -9999 -9999 -9999 -9999 -9999 -9999 -9999 -9999 -9999 -9999 -9999 -9999 -9999 -9999 -9999 -9999 -9999 -9999 -9999 -9999 -9999 -9999 -9999 -9999 -9999 -9999 -9999 -9999 -9999 -9999 -9999 -9999 -9999 -9999 -9999 -9999 -9999 -9999 -9999 -9999 -9999 -9999 -9999 -9999 -9999 -9999 -9999 -9999 -9999 -9999 -9999 -9999 -9999 -9999 -9999 -9999 -9999 -9999 -9999 -9999 -9999 -9999 -9999 -9999 -9999 -9999 -9999 -9999 -9999 -9999 -9999 -9999 -9999 -9999 -9999 -9999 -9999 -9999 -9999 -9999 -9999 -9999 2328.912109375 2312.742919921875 2306.634033203125 2309.986083984375 2325.85693359375 2337.97900390625 2352.2099609375 2369.2109375 2390.512939453125 2408.634033203125 2428.77587890625 2447.987060546875 2456.80810546875 2450.719970703125 2432.321044921875 2410.001953125 2385.1640625 2364.544921875 2347.9169921875 2327.72802734375 2306.819091796875 2286.200927734375 2270.681884765625 2248.904052734375 2232.844970703125 2217.385986328125 2202.4169921875 2194.077880859375 2182.658935546875 2168.18994140625 2154.02197265625 2139.81298828125 2129.39404296875 2113.655029296875 2093.926025390625 2074.0380859375 2057.3291015625 2043.0899658203125 2031.6710205078125 2019.1519775390625 2011.802978515625 2006.404052734375 1993.7060546875 1980.626953125 1968.2080078125 1954.3489990234375 1945.4599609375 1928.5810546875 1909.782958984375 1894.9940185546875 1878.4649658203125 1861.8260498046875 1842.7569580078125 1831.3280029296875 1819.530029296875 1807.23095703125 1792.761962890625 1780.623046875 1771.0140380859375 1760.0550537109375 1750.427001953125 1740.8480224609375 1731.76904296875 1722.800048828125 1713.031005859375 1697.072021484375 1679.843017578125 1661.324951171875 1646.43603515625 1633.5469970703125 1617.18798828125 1597.3590087890625 1575.1700439453125 1559.7120361328125 1544.623046875 1527.56396484375 1504.93505859375 1483.0660400390625 1458.487060546875 1434.178955078125 1413.3599853515625 1395.031005859375 1378.1820068359375 1362.6729736328125 1350.719970703125 1339.803955078125 1329.14697265625 1318.071044921875 1304.3260498046875 1290.842041015625 1293.4139404296875 1298.133056640625 1302.970947265625 1310.3709716796875 1324.0860595703125 1342.927978515625 1370.883056640625 1420.6949462890625 1451.949951171875 1516.3909912109375 1540.3580322265625 1573.1510009765625 1585.3409423828125 1601.8719482421875 1614.822998046875 1636.9000244140625 1662.4930419921875 1675.8179931640625 1694.7889404296875 1721.387939453125 1745.6209716796875 1758.4620361328125 1776.261962890625 1799.68798828125 1815.9749755859375 1834.5150146484375 1859.5269775390625 1876.1209716796875 1882.3790283203125 1901.4200439453125 1923.947021484375 1935.7669677734375 1946.666015625 1961.4639892578125 1970.3079833984375 1975.6920166015625 1983.7149658203125 1992.697998046875 1993.8819580078125 1999.4169921875 2006.0369873046875 2006.116943359375 2016.2159423828125 2036.4219970703125 2060.547119140625 2079.9560546875 2099.427001953125 2115.720947265625 2123.64697265625 2125.571044921875 2126.780029296875
-9999 -9999 -9999 -9999 -9999 -9999 -9999 -9999 -9999 -9999 -9999 -9999 -9999 -9999 -9999 -9999 -9999 -9999 -9999 -9999 -9999 -9999 -9999 -9999 -9999 -9999 -9999 -9999 -9999 -9999 -9999 -9999 -9999 -9999 -9999 -9999 -9999 -9999 -9999 -9999 -9999 -9999 -9999 -9999 -9999 -9999 -9999 -9999 -9999 -9999 -9999 -9999 -9999 -9999 -9999 -9999 -9999 -9999 -9999 -9999 -9999 -9999 -9999 -9999 -9999 -9999 -9999 -9999 -9999 -9999 -9999 -9999 -9999 -9999 -9999 -9999 -9999 -9999 -9999 -9999 -9999 -9999 -9999 -9999 -9999 -9999 -9999 -9999 -9999 -9999 -9999 2324.2041015625 2308.02587890625 2305.294921875 2309.22802734375 2319.909912109375 2336.240966796875 2355.653076171875 2374.39404296875 2396.72509765625 2417.947021484375 2434.6279296875 2448.9990234375 2445.200927734375 2432.08203125 2411.763916015625 2391.385009765625 2370.285888671875 2351.60791015625 2331.1689453125 2309.071044921875 2285.8720703125 2270.943115234375 2256.514892578125 2246.10595703125 2228.1669921875 2212.087890625 2202.10888671875 2192.8310546875 2180.261962890625 2165.0830078125 2152.924072265625 2135.695068359375 2124.095947265625 2102.548095703125 2082.43896484375 2064.4599609375 2051.531005859375 2038.092041015625 2025.2430419921875 2017.405029296875 2010.7159423828125 2005.3270263671875 1992.8780517578125 1980.5989990234375 1967.6199951171875 1954.02197265625 1938.123046875 1916.614013671875 1897.0849609375 1878.3160400390625 1861.8070068359375 1845.9580078125 1833.489990234375 1820.8310546875 1809.822021484375 1797.6429443359375 1779.4639892578125 1769.56494140625 1760.0970458984375 1750.7080078125 1740.989013671875 1733.9200439453125 1725.9610595703125 1713.3919677734375 1696.4739990234375 1682.925048828125 1664.8759765625 1648.1669921875 1631.64794921875 1616.5689697265625 1601.4310302734375 1582.9620361328125 1564.2130126953125 1547.2239990234375 1526.0849609375 1503.446044921875 1479.467041015625 1455.3489990234375 1432.4599609375 1412.3809814453125 1394.31201171875 1378.613037109375 1364.7239990234375 1351.529052734375 1338.89697265625 1326.9119873046875 1313.5970458984375 1302.2540283203125 1289.7440185546875 1287.8310546875 1295.77197265625 1301.114990234375 1314.29296875 1328.9990234375 1345.4139404296875 1372.199951171875 1403.5059814453125 1440.739990234375 1476.9739990234375 1532.2659912109375 1555.177001953125 1571.7340087890625 1589.7459716796875 1608.990966796875 1632.73095703125 1653.0279541015625 1670.291015625 1691.7139892578125 1714.2679443359375 1740.27099609375 1755.4849853515625 1773.1109619140625 1795.7569580078125 1815.677978515625 1831.7330322265625 1853.8330078125 1870.8060302734375 1884.6810302734375 1904.625 1917.9930419921875 1926.001953125 1937.970947265625 1949.1949462890625 1956.7139892578125 1959.8089599609375 1970.989013671875 1974.157958984375 1973.98095703125 1979.666015625 1985.9580078125 1986.260009765625 2010.56298828125 2032.39501953125 2052.989990234375 2072.56103515625 2091.554931640625 2103.888916015625 2107.048095703125 2106.794921875 2102.868896484375
-9999 -9999 -9999 -9999 -9999 -9999 -9999 -9999 -9999 -9999 -9999 -9999 -9999 -9999 -9999 -9999 -9999 -9999 -9999 -9999 -9999 -9999 -9999 -9999 -9999 -9999 -9999 -9999 -9999 -9999 -9999 -9999 -9999 -9999 -9999 -9999 -9999 -9999 -9999 -9999 -9999 -9999 -9999 -9999 -9999 -9999 -9999 -9999 -9999 -9999 -9999 -9999 -9999 -9999 -9999 -9999 -9999 -9999 -9999 -9999 -9999 -9999 -9999 -9999 -9999 -9999 -9999 -9999 -9999 -9999 -9999 -9999 -9999 -9999 -9999 -9999 -9999 -9999 -9999 -9999 -9999 -9999 -9999 -9999 -9999 -9999 -9999 -9999 -9999 -9999 -9999 -9999 2319.697021484375 2308.008056640625 2305.294921875 2306.950927734375 2323.08203125 2339.68408203125 2359.56494140625 2383.5859375 2404.508056640625 2424.428955078125 2435.0810546875 2434.402099609375 2434.962890625 2415.864990234375 2396.24609375 2377.93798828125 2355.448974609375 2327.699951171875 2309.132080078125 2291.052978515625 2275.10498046875 2261.26611328125 2248.3369140625 2231.278076171875 2218.219970703125 2206.0009765625 2194.60205078125 2184.23291015625 2169.583984375 2157.764892578125 2142.93603515625 2128.258056640625 2110.448974609375 2088.14990234375 2071.781005859375 2058.672119140625 2047.9539794921875 2034.6650390625 2021.5560302734375 2013.4969482421875 2006.22802734375 2001.0989990234375 1986.0999755859375 1973.6719970703125 1960.0830078125 1943.7939453125 1917.7349853515625 1899.9560546875 1882.4969482421875 1865.93896484375 1853.72998046875 1841.3310546875 1831.4119873046875 1820.1829833984375 1808.553955078125 1788.8260498046875 1773.376953125 1761.8680419921875 1747.6590576171875 1738.9300537109375 1730.06103515625 1721.7120361328125 1708.0040283203125 1690.6650390625 1679.5059814453125 1665.616943359375 1645.39794921875 1629.1689453125 1618.02099609375 1602.822021484375 1586.113037109375 1571.2939453125 1548.93505859375 1525.0560302734375 1502.137939453125 1477.6090087890625 1454.8399658203125 1431.6510009765625 1413.8919677734375 1395.343017578125 1380.81396484375 1366.656005859375 1355.2540283203125 1342.843994140625 1328.43505859375 1314.06005859375 1303.2239990234375 1293.8990478515625 1284.9830322265625 1292.7569580078125 1301.2979736328125 1313.626953125 1330.708984375 1351.5760498046875 1368.8909912109375 1390.175048828125 1429.04296875 1460.197021484375 1523.45703125 1539.280029296875 1560.5360107421875 1578.1319580078125 1601.2850341796875 1625.5780029296875 1641.85302734375 1661.5479736328125 1687.239990234375 1713.7340087890625 1743.7239990234375 1754.447021484375 1774.4830322265625 1796.8740234375 1816.583984375 1833.5980224609375 1852.1259765625 1873.89697265625 1884.8780517578125 1901.8260498046875 1911.7540283203125 1919.8740234375 1932.4949951171875 1936.5679931640625 1937.52001953125 1941.68798828125 1953.8409423828125 1953.4329833984375 1955.781005859375 1960.635009765625 1964.531005859375 1983.0780029296875 2005.3389892578125 2026.4239501953125 2044.7769775390625 2060.6201171875 2077.02001953125 2086.8310546875 2084.177001953125 2080.94091796875 2078.06591796875
-9999 -9999 -9999 -9999 -9999 -9999 -9999 -9999 -9999 -9999 -9999 -9999 -9999 -9999 -9999 -9999 -9999 -9999 -9999 -9999 -9999 -9999 -9999 -9999 -9999 -9999 -9999 -9999 -9999 -9999 -9999 -9999 -9999 -9999 -9999 -9999 -9999 -9999 -9999 -9999 -9999 -9999 -9999 -9999 -9999 -9999 -9999 -9999 -9999 -9999 -9999 -9999 -9999 -9999 -9999 -9999 -9999 -9999 -9999 -9999 -9999 -9999 -9999 -9999 -9999 -9999 -9999 -9999 -9999 -9999 -9999 -9999 -9999 -9999 -9999 -9999 -9999 -9999 -9999 -9999 -9999 -9999 -9999 -9999 -9999 -9999 -9999 -9999 -9999 -9999 -9999 -9999 -9999 2315.279052734375 2307.821044921875 2305.294921875 2310.072998046875 2328.554931640625 2349.10595703125 2371.407958984375 2394.4189453125 2417.0400390625 2426.06201171875 2429.68310546875 2424.7548828125 2418.0859375 2399.70703125 2382.37890625 2364.4599609375 2336.7119140625 2314.403076171875 2294.75390625 2276.14599609375 2260.20703125 2245.447998046875 2228.590087890625 2217.071044921875 2205.612060546875 2194.31298828125 2180.68408203125 2169.344970703125 2158.866943359375 2147.55810546875 2134.80908203125 2115.280029296875 2095.23095703125 2077.471923828125 2066.194091796875 2053.205078125 2043.8260498046875 2030.5369873046875 2019.22802734375 2006.7989501953125 1997.8909912109375 1988.3919677734375 1980.5830078125 1966.134033203125 1945.125 1921.5460205078125 1900.656982421875 1884.1590576171875 1866.9599609375 1856.0810546875 1845.56201171875 1837.052978515625 1825.60400390625 1813.406005859375 1796.5770263671875 1776.3380126953125 1766.3990478515625 1754.780029296875 1741.3310546875 1730.4229736328125 1718.1939697265625 1704.3349609375 1687.865966796875 1673.9169921875 1659.1180419921875 1642.5589599609375 1633.0909423828125 1621.7020263671875 1600.822998046875 1582.2340087890625 1563.594970703125 1544.885986328125 1524.6080322265625 1499.208984375 1476.6199951171875 1452.1209716796875 1430.4620361328125 1409.9930419921875 1393.31494140625 1381.9959716796875 1367.8370361328125 1355.6290283203125 1343.89501953125 1329.2659912109375 1320.009033203125 1305.9420166015625 1294.7020263671875 1284.9830322265625 1289.83203125 1300.2320556640625 1313.6939697265625 1329.2509765625 1344.281005859375 1368.488037109375 1394.8089599609375 1416.491943359375 1458.22705078125 1495.6190185546875 1530.634033203125 1553.030029296875 1574.803955078125 1598.8990478515625 1623.758056640625 1639.93505859375 1659.426025390625 1681.4639892578125 1712.9520263671875 1735.3389892578125 1748.6180419921875 1774.76904296875 1797.2939453125 1815.5799560546875 1835.06298828125 1856.8160400390625 1874.114013671875 1883.9549560546875 1896.5179443359375 1904.719970703125 1913.6400146484375 1923.0169677734375 1921.27294921875 1918.9019775390625 1927.7550048828125 1936.5989990234375 1934.719970703125 1938.6519775390625 1942.2919921875 1962.01904296875 1982.2469482421875 2002.6259765625 2020.7359619140625 2031.4539794921875 2044.988037109375 2062.489013671875 2067.02099609375 2061.60302734375 2055.052978515625 2067.715087890625
-9999 -9999 -9999 -9999 -9999 -9999 -9999 -9999 -9999 -9999 -9999 -9999 -9999 -9999 -9999 -9999 -9999 -9999 -9999 -9999 -9999 -9999 -9999 -9999 -9999 -9999 -9999 -9999 -9999 -9999 -9999 -9999 -9999 -9999 -9999 -9999 -9999 -9999 -9999 -9999 -9999 -9999 -9999 -9999 -9999 -9999 -9999 -9999 -9999 -9999 -9999 -9999 -9999 -9999 -9999 -9999 -9999 -9999 -9999 -9999 -9999 -9999 -9999 -9999 -9999 -9999 -9999 -9999 -9999 -9999 -9999 -9999 -9999 -9999 -9999 -9999 -9999 -9999 -9999 -9999 -9999 -9999 -9999 -9999 -9999 -9999 -9999 -9999 -9999 -9999 -9999 -9999 -9999 -9999 2309.662109375 2305.81298828125 2305.294921875 2320.56591796875 2338.537109375 2361.4990234375 2385.8798828125 2406.531982421875 2423.123046875 2421.77392578125 2417.3359375 2416.467041015625 2402.458984375 2383.280029296875 2363.89111328125 2343.673095703125 2321.9541015625 2294.0458984375 2273.217041015625 2257.069091796875 2244.050048828125 2228.910888671875 2217.221923828125 2205.4130859375 2194.23388671875 2186.156005859375 2175.70703125 2164.157958984375 2150.658935546875 2139.10009765625 2117.6708984375 2097.383056640625 2080.1240234375 2071.39501953125 2060.18603515625 2048.297119140625 2037.3480224609375 2025.01904296875 2009.52099609375 2000.4520263671875 1987.54296875 1980.9239501953125 1968.0150146484375 1946.0260009765625 1924.0179443359375 1904.718994140625 1885.1400146484375 1867.291015625 1857.1820068359375 1845.4530029296875 1836.85498046875 1829.3360595703125 1817.487060546875 1803.1280517578125 1787.948974609375 1774.030029296875 1762.571044921875 1748.1929931640625 1734.4539794921875 1718.64501953125 1701.7860107421875 1682.8570556640625 1673.008056640625 1657.6400146484375 1647.0810546875 1632.1419677734375 1615.4930419921875 1595.06396484375 1574.5350341796875 1551.946044921875 1529.89794921875 1509.3890380859375 1489 1470.6610107421875 1451.52197265625 1432.302978515625 1414.56494140625 1396.0560302734375 1381.9969482421875 1368.0479736328125 1356.1639404296875 1344.4310302734375 1333.7740478515625 1319.2969970703125 1306.696044921875 1297.407958984375 1284.9830322265625 1285.4169921875 1296.5870361328125 1306.467041015625 1318.43701171875 1330.4820556640625 1349.635009765625 1396.3740234375 1434.531982421875 1448.3780517578125 1498.9100341796875 1525.2760009765625 1548.2230224609375 1569.9300537109375 1595.053955078125 1616.0040283203125 1636.4659423828125 1656.2459716796875 1680.31494140625 1703.7490234375 1725.9520263671875 1744.822998046875 1767.6729736328125 1797.7080078125 1823.1319580078125 1839.2120361328125 1857.1309814453125 1868.698974609375 1877.1070556640625 1888.762939453125 1900.552978515625 1907.176025390625 1907.303955078125 1903.0059814453125 1902.72998046875 1912.22705078125 1919.7860107421875 1915.9019775390625 1919.2259521484375 1942.114013671875 1960.8590087890625 1980.06005859375 1997.4739990234375 2002.0469970703125 2015.112060546875 2027.968017578125 2035.7669677734375 2043.446044921875 2039.73095703125 2041.261962890625 2059.553955078125
-9999 -9999 -9999 -9999 -9999 -9999 -9999 -9999 -9999 -9999 -9999 -9999 -9999 -9999 -9999 -9999 -9999 -9999 -9999 -9999 -9999 -9999 -9999 -9999 -9999 -9999 -9999 -9999 -9999 -9999 -9999 -9999 -9999 -9999 -9999 -9999 -9999 -9999 -9999 -9999 -9999 -9999 -9999 -9999 -9999 -9999 -9999 -9999 -9999 -9999 -9999 -9999 -9999 -9999 -9999 -9999 -9999 -9999 -9999 -9999 -9999 -9999 -9999 -9999 -9999 -9999 -9999 -9999 -9999 -9999 -9999 -9999 -9999 -9999 -9999 -9999 -9999 -9999 -9999 -9999 -9999 -9999 -9999 -9999 -9999 -9999 -9999 -9999 -9999 -9999 -9999 -9999 -9999 -9999 -9999 2307.50390625 2302.556884765625 2311.217041015625 2331.4580078125 2358.5400390625 2379.9208984375 2398.472900390625 2412.50390625 2412.885986328125 2407.427001953125 2409.248046875 2397.639892578125 2379.23095703125 2360.29296875 2336.364013671875 2313.4560546875 2290.386962890625 2268.8779296875 2253.9599609375 2244.98095703125 2232.27197265625 2222.532958984375 2210.654052734375 2198.825927734375 2191.43701171875 2179.76806640625 2170.87890625 2158.389892578125 2141.861083984375 2118.31298828125 2096.674072265625 2078.074951171875 2070.56591796875 2064.556884765625 2052.60791015625 2041.72998046875 2029.1610107421875 2016.8719482421875 2004.54296875 1991.7139892578125 1978.60498046875 1965.93603515625 1946.238037109375 1924.6190185546875 1906.8900146484375 1885.8310546875 1872.0419921875 1857.29296875 1845.31494140625 1836.0260009765625 1825.2669677734375 1812.22802734375 1804.0989990234375 1795.4200439453125 1778.251953125 1765.2530517578125 1751.654052734375 1738.2650146484375 1723.6259765625 1706.9969482421875 1688.41796875 1674.219970703125 1662.56103515625 1652.9420166015625 1636.6729736328125 1614.6739501953125 1600.344970703125 1581.427001953125 1562.0880126953125 1541.8189697265625 1521.4200439453125 1498.9610595703125 1474.592041015625 1454.4229736328125 1435.2650146484375 1415.865966796875 1398.447021484375 1380.947998046875 1366.47900390625 1351.863037109375 1340.4189453125 1328.926025390625 1318.56396484375 1308.6810302734375 1300.0460205078125 1288.06103515625 1280.9549560546875 1290.885986328125 1300.7979736328125 1306.343994140625 1321.4969482421875 1340.240966796875 1393.947021484375 1440.9830322265625 1474.615966796875 1498.7120361328125 1520.4599609375 1545.64697265625 1570.2159423828125 1592.7540283203125 1611.427978515625 1630.0689697265625 1652.7979736328125 1677.029052734375 1699.551025390625 1720.053955078125 1735.7020263671875 1769.032958984375 1800.9990234375 1819.7320556640625 1832.5050048828125 1846.947998046875 1863.0989990234375 1872.833984375 1885.050048828125 1891.7669677734375 1897.240966796875 1892.3170166015625 1887.1390380859375 1890.0560302734375 1894.5909423828125 1902.488037109375 1894.1619873046875 1916.987060546875 1937.8480224609375 1959.2650146484375 1970.302978515625 1977.636962890625 1985.2220458984375 1997.64697265625 2006.8909912109375 2013.2530517578125 2019.4820556640625 2018.4000244140625 2037.7239990234375 2052.743896484375
-9999 -9999 -9999 -9999 -9999 -9999 -9999 -9999 -9999 -9999 -9999 -9999 -9999 -9999 -9999 -9999 -9999 -9999 -9999 -9999 -9999 -9999 -9999 -9999 -9999 -9999 -9999 -9999 -9999 -9999 -9999 -9999 -9999 -9999 -9999 -9999 -9999 -9999 -9999 -9999 -9999 -9999 -9999 -9999 -9999 -9999 -9999 -9999 -9999 -9999 -9999 -9999 -9999 -9999 -9999 -9999 -9999 -9999 -9999 -9999 -9999 -9999 -9999 -9999 -9999 -9999 -9999 -9999 -9999 -9999 -9999 -9999 -9999 -9999 -9999 -9999 -9999 -9999 -9999 -9999 -9999 -9999 -9999 -9999 -9999 -9999 -9999 -9999 -9999 -9999 -9999 -9999 -9999 -9999 -9999 2307.85498046875 2302.556884765625 2302.907958984375 2321.469970703125 2344.041015625 2367.382080078125 2387.75390625 2399.344970703125 2409.447021484375 2405.137939453125 2398.590087890625 2391.111083984375 2372.451904296875 2352.72412109375 2328.60498046875 2307.10693359375 2288.258056640625 2270.2900390625 2255.781005859375 2246.7919921875 2237.363037109375 2224.885009765625 2216.76611328125 2207.7470703125 2193.51806640625 2182.549072265625 2175.489990234375 2164.220947265625 2145.79296875 2118.493896484375 2099.375 2079.736083984375 2068.76708984375 2061.798095703125 2055.780029296875 2045.3409423828125 2031.4520263671875 2016.5030517578125 2003.64404296875 1990.9649658203125 1976.8470458984375 1961.718017578125 1941.208984375 1923.9599609375 1908.9210205078125 1894.4420166015625 1873.4730224609375 1854.9150390625 1846.2060546875 1836.2969970703125 1824.5179443359375 1812.6590576171875 1805.050048828125 1794.7120361328125 1780.572998046875 1766.0439453125 1750.7550048828125 1734.845947265625 1722.5369873046875 1706.76904296875 1691.699951171875 1675.760986328125 1662.6419677734375 1650.032958984375 1638.323974609375 1620.905029296875 1603.217041015625 1581.0980224609375 1559.5589599609375 1537.8699951171875 1518.56103515625 1498.802001953125 1478.89404296875 1457.655029296875 1436.416015625 1416.5069580078125 1398.93798828125 1384.779052734375 1369.81005859375 1356.0560302734375 1344.0159912109375 1332.5469970703125 1320.031982421875 1309.530029296875 1298.655029296875 1287.8590087890625 1276.2110595703125 1286.197998046875 1293.3060302734375 1300.47900390625 1317.572998046875 1340.614013671875 1384.54296875 1438.5830078125 1469.5770263671875 1498.2159423828125 1520.0030517578125 1547.3409423828125 1568.875 1589.218017578125 1607.4620361328125 1629.2550048828125 1650.1240234375 1675.3270263671875 1696.4930419921875 1716.0059814453125 1737.3900146484375 1770.8690185546875 1790.58203125 1804.47900390625 1820.0980224609375 1835.4530029296875 1850.3680419921875 1859.7349853515625 1871.7440185546875 1879.56103515625 1881.27099609375 1875.5169677734375 1869.2249755859375 1876.011962890625 1885.458984375 1880.56494140625 1888.7220458984375 1912.75 1935.9110107421875 1944.9510498046875 1951.6839599609375 1957.845947265625 1972.33203125 1978.35302734375 1985.56494140625 1993.1009521484375 1997.9560546875 2012.77099609375 2031.93505859375 2035.843017578125
-9999 -9999 -9999 -9999 -9999 -9999 -9999 -9999 -9999 -9999 -9999 -9999 -9999 -9999 -9999 -9999 -9999 -9999 -9999 -9999 -9999 -9999 -9999 -9999 -9999 -9999 -9999 -9999 -9999 -9999 -9999 -9999 -9999 -9999 -9999 -9999 -9999 -9999 -9999 -9999 -9999 -9999 -9999 -9999 -9999 -9999 -9999 -9999 -9999 -9999 -9999 -9999 -9999 -9999 -9999 -9999 -9999 -9999 -9999 -9999 -9999 -9999 -9999 -9999 -9999 -9999 -9999 -9999 -9999 -9999 -9999 -9999 -9999 -9999 -9999 -9999 -9999 -9999 -9999 -9999 -9999 -9999 -9999 -9999 -9999 -9999 -9999 -9999 -9999 -9999 -9999 -9999 -9999 -9999 -9999 -9999 2305.827880859375 2301.08203125 2312.180908203125 2328.9619140625 2357.31396484375 2371.215087890625 2391.237060546875 2402.087890625 2399.09912109375 2391.361083984375 2384.27197265625 2365.47412109375 2341.2451171875 2322.5869140625 2306.068115234375 2288.279052734375 2269.81103515625 2257.572021484375 2248.343017578125 2238.574951171875 2224.49609375 2215.64697265625 2210.7880859375 2197.618896484375 2183.6201171875 2175.81201171875 2165.822998046875 2147.694091796875 2121.044921875 2097.325927734375 2083.136962890625 2070.868896484375 2063.139892578125 2052.910888671875 2045.6519775390625 2035.032958984375 2020.384033203125 2010.426025390625 1989.8070068359375 1970.1080322265625 1957.7490234375 1940.9599609375 1926.051025390625 1915.781982421875 1903.0439453125 1881.7650146484375 1858.60595703125 1845.4969482421875 1835.66796875 1826.5389404296875 1815.06103515625 1802.5419921875 1789.6829833984375 1775.2740478515625 1759.4150390625 1746.446044921875 1737.5369873046875 1726.0589599609375 1712.4300537109375 1695.23095703125 1677.1820068359375 1664.363037109375 1653.60400390625 1638.9749755859375 1621.0670166015625 1606.39794921875 1590.2889404296875 1568.760009765625 1549.0909423828125 1526.1519775390625 1502.864013671875 1480.074951171875 1458.7659912109375 1436.89697265625 1418.637939453125 1401.239013671875 1385.6400146484375 1370.281982421875 1358.1710205078125 1343.6319580078125 1333.0870361328125 1321.60205078125 1306.968017578125 1291.5069580078125 1285.18994140625 1274.7509765625 1281.81494140625 1291.447998046875 1306.623046875 1328.02099609375 1350.3070068359375 1378.16796875 1414.093017578125 1458.1820068359375 1487.9169921875 1515.864013671875 1541.4739990234375 1561.4410400390625 1583.85595703125 1603.208984375 1626.5489501953125 1648.532958984375 1671.3060302734375 1690.2459716796875 1712.1319580078125 1745.154052734375 1768.010986328125 1784.248046875 1800.125 1812.8089599609375 1827.4830322265625 1837.4210205078125 1840.5870361328125 1852.425048828125 1863.677978515625 1866.81201171875 1858.3499755859375 1852.4610595703125 1861.39501953125 1865.9090576171875 1866.126953125 1888.9320068359375 1907.8349609375 1919.3790283203125 1922.7760009765625 1934.625 1942.5340576171875 1951.35205078125 1959.6949462890625 1967.259033203125 1981.9219970703125 1996.001953125 2011.4129638671875 2016.9949951171875 2024.866943359375
-9999 -9999 -9999 -9999 -9999 -9999 -9999 -9999 -9999 -9999 -9999 -9999 -9999 -9999 -9999 -9999 -9999 -9999 -9999 -9999 -9999 -9999 -9999 -9999 -9999 -9999 -9999 -9999 -9999 -9999 -9999 -9999 -9999 -9999 -9999 -9999 -9999 -9999 -9999 -9999 -9999 -9999 -9999 -9999 -9999 -9999 -9999 -9999 -9999 -9999 -9999 -9999 -9999 -9999 -9999 -9999 -9999 -9999 -9999 -9999 -9999 -9999 -9999 -9999 -9999 -9999 -9999 -9999 -9999 -9999 -9999 -9999 -9999 -9999 -9999 -9999 -9999 -9999 -9999 -9999 -9999 -9999 -9999 -9999 -9999 -9999 -9999 -9999 -9999 -9999 -9999 -9999 -9999 -9999 -9999 -9999 -9999 2303.35009765625 2301.08203125 2315.173095703125 2334.864990234375 2350.5859375 2374.488037109375 2387.0791015625 2388.3310546875 2385.0419921875 2383.89306640625 2363.264892578125 2341.135986328125 2320.66796875 2304.658935546875 2284.62109375 2269.612060546875 2259.303955078125 2247.72509765625 2238.35595703125 2225.697021484375 2213.39794921875 2209.14892578125 2198.291015625 2186.072021484375 2174.5029296875 2164.114013671875 2148.715087890625 2123.89599609375 2099.468017578125 2085.84912109375 2075.679931640625 2066.31103515625 2056.23193359375 2043.7130126953125 2033.073974609375 2021.446044921875 2004.18701171875 1984.91796875 1970.2989501953125 1955.31005859375 1942.8409423828125 1926.343017578125 1914.323974609375 1900.60498046875 1885.68603515625 1865.1070556640625 1849.1180419921875 1836.76904296875 1828.6109619140625 1814.072021484375 1801.3330078125 1785.9439697265625 1771.625 1756.6259765625 1745.45703125 1737.1490478515625 1727.4599609375 1714.990966796875 1696.112060546875 1677.7130126953125 1662.89404296875 1649.4659423828125 1638.386962890625 1625.5980224609375 1605.8790283203125 1591.1800537109375 1576.240966796875 1552.7220458984375 1528.64404296875 1506.2550048828125 1483.446044921875 1462.616943359375 1441.677978515625 1421.448974609375 1403.77099609375 1386.4019775390625 1371.2330322265625 1357.2769775390625 1343.780029296875 1332.4189453125 1315.2769775390625 1298.72802734375 1287.5040283203125 1278.8709716796875 1274.7509765625 1278.873046875 1293.2760009765625 1311.5350341796875 1334.7039794921875 1356.8370361328125 1380.4990234375 1414.574951171875 1446.0450439453125 1476.4510498046875 1504.9339599609375 1525.4010009765625 1549.6619873046875 1574.7919921875 1595.9010009765625 1622.18798828125 1642.2960205078125 1662.4449462890625 1683.0880126953125 1709.552001953125 1741.4300537109375 1758.0059814453125 1775.35498046875 1790.0439453125 1804.14501953125 1814.5899658203125 1821.3599853515625 1824.3489990234375 1837.06298828125 1844.6070556640625 1847.8189697265625 1843.4449462890625 1834.844970703125 1844.927001953125 1840.7239990234375 1863.7060546875 1879.4110107421875 1892.6510009765625 1895.7960205078125 1905.093994140625 1915.0179443359375 1925.758056640625 1938.758056640625 1950.262939453125 1969.06298828125 1978.8370361328125 1986.8409423828125 1999.385986328125 2012.613037109375 2022.1109619140625
-9999 -9999 -9999 -9999 -9999 -9999 -9999 -9999 -9999 -9999 -9999 -9999 -9999 -9999 -9999 -9999 -9999 -9999 -9999 -9999 -9999 -9999 -9999 -9999 -9999 -9999 -9999 -9999 -9999 -9999 -9999 -9999 -9999 -9999 -9999 -9999 -9999 -9999 -9999 -9999 -9999 -9999 -9999 -9999 -9999 -9999 -9999 -9999 -9999 -9999 -9999 -9999 -9999 -9999 -9999 -9999 -9999 -9999 -9999 -9999 -9999 -9999 -9999 -9999 -9999 -9999 -9999 -9999 -9999 -9999 -9999 -9999 -9999 -9999 -9999 -9999 -9999 -9999 -9999 -9999 -9999 -9999 -9999 -9999 -9999 -9999 -9999 -9999 -9999 -9999 -9999 -9999 -9999 -9999 -9999 -9999 -9999 2299.9619140625 2297.903076171875 2302.803955078125 2318.236083984375 2331.6669921875 2350.458984375 2368.31005859375 2364.761962890625 2375.633056640625 2373.68505859375 2359.305908203125 2342.887939453125 2321.09912109375 2300 2283.19189453125 2270.072998046875 2258.364990234375 2245.805908203125 2236.4169921875 2225.26806640625 2214.759033203125 2207.990966796875 2197.382080078125 2187.23291015625 2175.73388671875 2163.534912109375 2147.43603515625 2124.998046875 2099.39892578125 2086.489990234375 2076.85107421875 2067.681884765625 2055.79296875 2043.425048828125 2030.9759521484375 2014.8370361328125 2001.697998046875 1986.4189453125 1967.9300537109375 1953.801025390625 1936.012939453125 1922.2640380859375 1912.3349609375 1900.4560546875 1887.447021484375 1869.0479736328125 1856.0699462890625 1846.56103515625 1829.7020263671875 1816.79296875 1803.5140380859375 1790.405029296875 1773.8060302734375 1755.97802734375 1744.2989501953125 1735.3199462890625 1729.2010498046875 1715.58203125 1701.4730224609375 1680.333984375 1664.7960205078125 1648.8270263671875 1635.447998046875 1625.009033203125 1612.5400390625 1598.510986328125 1573.9930419921875 1551.7239990234375 1531.625 1511.4959716796875 1491.9969482421875 1469.197998046875 1444.718994140625 1422.571044921875 1405.342041015625 1386.9730224609375 1369.60400390625 1356.260009765625 1342.7030029296875 1331.6259765625 1313.4000244140625 1293.31298828125 1282.6739501953125 1274.68994140625 1271.7939453125 1281.428955078125 1292.0799560546875 1312.64404296875 1334.9129638671875 1358.5880126953125 1382.4320068359375 1407.197998046875 1433.0340576171875 1457.85595703125 1482.3199462890625 1511.0400390625 1540.3079833984375 1567.427978515625 1589.8740234375 1613.425048828125 1632.279052734375 1649.240966796875 1673.468017578125 1710.2919921875 1728.6929931640625 1744.458984375 1764.68994140625 1779.9580078125 1794.7159423828125 1799.81103515625 1802.4449462890625 1807.47802734375 1818.426025390625 1827.177001953125 1827.6080322265625 1826.1810302734375 1820.7850341796875 1825.156005859375 1838.342041015625 1847.6689453125 1858.5279541015625 1869.9029541015625 1872.6090087890625 1887.7149658203125 1903.8680419921875 1921.81396484375 1938.2220458984375 1955.10498046875 1959.4310302734375 1969.198974609375 1985.02099609375 1997.83203125 2011.8699951171875 2024.81201171875
-9999 -9999 -9999 -9999 -9999 -9999 -9999 -9999 -9999 -9999 -9999 -9999 -9999 -9999 -9999 -9999 -9999 -9999 -9999 -9999 -9999 -9999 -9999 -9999 -9999 -9999 -9999 -9999 -9999 -9999 -9999 -9999 -9999 -9999 -9999 -9999 -9999 -9999 -9999 -9999 -9999 -9999 -9999 -9999 -9999 -9999 -9999 -9999 -9999 -9999 -9999 -9999 -9999 -9999 -9999 -9999 -9999 -9999 -9999 -9999 -9999 -9999 -9999 -9999 -9999 -9999 -9999 -9999 -9999 -9999 -9999 -9999 -9999 -9999 -9999 -9999 -9999 -9999 -9999 -9999 -9999 -9999 -9999 -9999 -9999 -9999 -9999 -9999 -9999 -9999 -9999 -9999 -9999 -9999 -9999 -9999 -9999 2297.23291015625 2295.763916015625 2292.8359375 2299.306884765625 2311.049072265625 2324.489990234375 2334.9208984375 2345.472900390625 2359.614013671875 2363.135986328125 2349.987060546875 2337.698974609375 2316.22998046875 2296.112060546875 2282.29296875 2268.324951171875 2258.0458984375 2248.366943359375 2237.238037109375 2225.949951171875 2216.010986328125 2208.6220703125 2198.48291015625 2186.553955078125 2175.364990234375 2163.3759765625 2142.8779296875 2117.458984375 2098.8701171875 2087.410888671875 2077.501953125 2067.633056640625 2056.284912109375 2043.7459716796875 2028.3470458984375 2012.8079833984375 2000.2889404296875 1986.25 1967.3919677734375 1953.1529541015625 1934.803955078125 1922.5450439453125 1911.095947265625 1901.0670166015625 1889.43798828125 1875.0699462890625 1858.051025390625 1845.3819580078125 1835.322998046875 1828.303955078125 1814.9749755859375 1800.6259765625 1787.16796875 1770.4990234375 1761.6600341796875 1749.3409423828125 1736.531982421875 1714.52294921875 1705.5050048828125 1687.10595703125 1669.717041015625 1651.137939453125 1634.5989990234375 1623.5799560546875 1612.1309814453125 1601.4029541015625 1579.9439697265625 1556.06494140625 1534.9859619140625 1519.116943359375 1497.238037109375 1474.0689697265625 1450.27099609375 1428.761962890625 1405.9830322265625 1387.1639404296875 1370.7650146484375 1356.0419921875 1341.0439453125 1330.81201171875 1311.9150390625 1291.6929931640625 1278.5400390625 1268.988037109375 1274.094970703125 1281.7220458984375 1292.7020263671875 1311.8759765625 1334.14794921875 1356.51904296875 1379.8399658203125 1404.0770263671875 1428.8370361328125 1455.02001953125 1483.77099609375 1512.623046875 1541.7259521484375 1563.657958984375 1582.93994140625 1602.06298828125 1623.740966796875 1644.1910400390625 1671.26904296875 1697.0870361328125 1715.508056640625 1734.281005859375 1755.2659912109375 1772.4410400390625 1781.60595703125 1785.72998046875 1789.6400146484375 1794.0989990234375 1803.001953125 1808.10498046875 1807.9339599609375 1808.9620361328125 1805.72998046875 1803.3310546875 1818.5810546875 1827.9029541015625 1842.3780517578125 1860.426025390625 1879.843994140625 1901.741943359375 1915.8580322265625 1926.491943359375 1935.5589599609375 1941.2900390625 1960.39501953125 1972.0679931640625 1987.4759521484375 1999.8509521484375 2024.9630126953125 2040.260986328125
-9999 -9999 -9999 -9999 -9999 -9999 -9999 -9999 -9999 -9999 -9999 -9999 -9999 -9999 -9999 -9999 -9999 -9999 -9999 -9999 -9999 -9999 -9999 -9999 -9999 -9999 -9999 -9999 -9999 -9999 -9999 -9999 -9999 -9999 -9999 -9999 -9999 -9999 -9999 -9999 -9999 -9999 -9999 -9999 -9999 -9999 -9999 -9999 -9999 -9999 -9999 -9999 -9999 -9999 -9999 -9999 -9999 -9999 -9999 -9999 -9999 -9999 -9999 -9999 -9999 -9999 -9999 -9999 -9999 -9999 -9999 -9999 -9999 -9999 -9999 -9999 -9999 -9999 -9999 -9999 -9999 -9999 -9999 -9999 -9999 -9999 -9999 -9999 -9999 -9999 -9999 -9999 -9999 -9999 -9999 -9999 2289.08203125 2291.18408203125 2291.4150390625 2286.787109375 2280.4580078125 2292.159912109375 2301.81103515625 2313.04296875 2324.00390625 2339.406005859375 2354.39697265625 2347.658935546875 2329.3701171875 2309.94091796875 2291.202880859375 2279.583984375 2269.285888671875 2259.366943359375 2250.198974609375 2240.6298828125 2227.720947265625 2217.69189453125 2209.52294921875 2199.993896484375 2187.9951171875 2176.26708984375 2161.677978515625 2145.01904296875 2114.070068359375 2098.89111328125 2090.39208984375 2081.333984375 2068.43505859375 2053.52587890625 2042.7569580078125 2028.91796875 2013.22900390625 1998.6700439453125 1980.6719970703125 1965.2530517578125 1949.0040283203125 1934.7249755859375 1921.14599609375 1910.136962890625 1899.3089599609375 1887.9300537109375 1876.1510009765625 1864.552001953125 1851.3929443359375 1839.553955078125 1826.094970703125 1816.366943359375 1807.3280029296875 1797.3189697265625 1790.6400146484375 1769.7509765625 1759.83203125 1739.113037109375 1722.625 1714.39599609375 1692.3170166015625 1669.66796875 1648.3389892578125 1629.469970703125 1619.241943359375 1610.363037109375 1598.5340576171875 1589.2049560546875 1561.9759521484375 1542.5970458984375 1523.677978515625 1499.1500244140625 1476.1910400390625 1453.612060546875 1430.1429443359375 1406.1639404296875 1387.7950439453125 1370.635986328125 1355.093017578125 1341.26904296875 1328.4990234375 1310.001953125 1288.1529541015625 1273.4449462890625 1267.8089599609375 1272.3809814453125 1280.6820068359375 1289.7359619140625 1310.011962890625 1330.175048828125 1353.81005859375 1377.550048828125 1400.9659423828125 1426.239990234375 1452.0030517578125 1480.052978515625 1510.8609619140625 1535.2259521484375 1557.8270263671875 1577.1510009765625 1599.5169677734375 1618.93505859375 1637.60205078125 1668.45703125 1689.6689453125 1706.302978515625 1724.279052734375 1746.39501953125 1759.2259521484375 1765.0350341796875 1765.989990234375 1771.2760009765625 1773.5400390625 1785.8790283203125 1787.2979736328125 1786.3160400390625 1782.8900146484375 1787.85595703125 1801.1490478515625 1820.6619873046875 1839.4539794921875 1858.364013671875 1873.64404296875 1884.406005859375 1887.6689453125 1904.095947265625 1912.6929931640625 1924.092041015625 1953.426025390625 1974.4580078125 1993.218017578125 2008.4649658203125 2016.113037109375 2018.68701171875 2038.678955078125
-9999 -9999 -9999 -9999 -9999 -9999 -9999 -9999 -9999 -9999 -9999 -9999 -9999 -9999 -9999 -9999 -9999 -9999 -9999 -9999 -9999 -9999 -9999 -9999 -9999 -9999 -9999 -9999 -9999 -9999 -9999 -9999 -9999 -9999 -9999 -9999 -9999 -9999 -9999 -9999 -9999 -9999 -9999 -9999 -9999 -9999 -9999 -9999 -9999 -9999 -9999 -9999 -9999 -9999 -9999 -9999 -9999 -9999 -9999 -9999 -9999 -9999 -9999 -9999 -9999 -9999 -9999 -9999 -9999 -9999 -9999 -9999 -9999 -9999 -9999 -9999 -9999 -9999 -9999 -9999 -9999 -9999 -9999 -9999 -9999 -9999 -9999 -9999 -9999 -9999 -9999 -9999 -9999 -9999 -9999 -9999 2280.52392578125 2279.955078125 2276.676025390625 2280.177978515625 2271.73193359375 2275.341064453125 2284.08203125 2292.89404296875 2306.705078125 2320.096923828125 2336.3779296875 2348.2099609375 2329.760986328125 2307.363037109375 2287.674072265625 2278.81591796875 2268.85693359375 2256.59912109375 2247.6298828125 2239.4609375 2230.721923828125 2215.85302734375 2208.77392578125 2198.4560546875 2188.427001953125 2174.60791015625 2160.62890625 2144.18994140625 2115.5810546875 2098.873046875 2090.14404296875 2081.945068359375 2065.64599609375 2050.14697265625 2038.2679443359375 2025.1190185546875 2011.81103515625 1996.001953125 1974.9129638671875 1957.2740478515625 1941.89501953125 1926.8759765625 1913.7469482421875 1903.0789794921875 1894.25 1883.8909912109375 1871.9119873046875 1859.7230224609375 1847.7939453125 1837.9649658203125 1830.0970458984375 1817.6080322265625 1808.448974609375 1801.0999755859375 1798.281005859375 1776.60205078125 1763.343994140625 1751.2449951171875 1731.7459716796875 1713.1669921875 1691.137939453125 1668.22900390625 1646.489990234375 1630.1419677734375 1612.6829833984375 1605.7840576171875 1596.5350341796875 1587.0260009765625 1569.697021484375 1549.2979736328125 1525.739990234375 1502.4510498046875 1480.8719482421875 1461.6529541015625 1439.0340576171875 1414.7049560546875 1392.45703125 1374.18798828125 1356.0030517578125 1338.926025390625 1324.89404296875 1307.39501953125 1284.5780029296875 1269.3370361328125 1266.3470458984375 1271.5469970703125 1276.376953125 1286.2049560546875 1306.614990234375 1327.032958984375 1349.635986328125 1372.6390380859375 1396.3089599609375 1421.10595703125 1445.9959716796875 1473.4749755859375 1501.177001953125 1526.2469482421875 1550.89794921875 1573.18505859375 1590.803955078125 1609.239013671875 1625.68701171875 1656.333984375 1675.362060546875 1698.501953125 1724.010009765625 1738.510986328125 1740.864990234375 1744.4169921875 1744.3890380859375 1748.7230224609375 1753.2039794921875 1765.864013671875 1764.9229736328125 1764.302978515625 1767.85595703125 1784.470947265625 1805.0240478515625 1827.5169677734375 1847.8270263671875 1854.177001953125 1861.6710205078125 1857.7530517578125 1867.2099609375 1890.1090087890625 1908.9739990234375 1930.60595703125 1954.4949951171875 1978.904052734375 2005.0899658203125 2025.4019775390625 2035.2659912109375 2040.2359619140625 2050.87890625
-9999 -9999 -9999 -9999 -9999 -9999 -9999 -9999 -9999 -9999 -9999 -9999 -9999 -9999 -9999 -9999 -9999 -9999 -9999 -9999 -9999 -9999 -9999 -9999 -9999 -9999 -9999 -9999 -9999 -9999 -9999 -9999 -9999 -9999 -9999 -9999 -9999 -9999 -9999 -9999 -9999 -9999 -9999 -9999 -9999 -9999 -9999 -9999 -9999 -9999 -9999 -9999 -9999 -9999 -9999 -9999 -9999 -9999 -9999 -9999 -9999 -9999 -9999 -9999 -9999 -9999 -9999 -9999 -9999 -9999 -9999 -9999 -9999 -9999 -9999 -9999 -9999 -9999 -9999 -9999 -9999 -9999 -9999 -9999 -9999 -9999 -9999 -9999 -9999 -9999 -9999 -9999 -9999 -9999 -9999 -9999 2276.385009765625 2274.35595703125 2273.9580078125 2273.118896484375 2271.801025390625 2271.73193359375 2267.214111328125 2274.905029296875 2291.285888671875 2309.718017578125 2330.198974609375 2342.12109375 2329.001953125 2310.10400390625 2286.72509765625 2274.237060546875 2265.528076171875 2253.9599609375 2242.910888671875 2235.9619140625 2227.52294921875 2214.654052734375 2203.216064453125 2196.547119140625 2188.827880859375 2174.80908203125 2160.10009765625 2145.041015625 2125.1630859375 2103.64404296875 2087.784912109375 2074.56591796875 2058.757080078125 2046.447998046875 2032.699951171875 2020.2509765625 2008.302001953125 1995.2430419921875 1973.134033203125 1951.6949462890625 1936.595947265625 1923.0679931640625 1910.6090087890625 1900 1890.9010009765625 1880.1920166015625 1869.9029541015625 1858.053955078125 1846.7459716796875 1838.0770263671875 1831.3380126953125 1823.698974609375 1813.280029296875 1805.3909912109375 1801.8719482421875 1792.654052734375 1762.074951171875 1746.39599609375 1732.1070556640625 1716.468017578125 1691.3590087890625 1665.0799560546875 1645.781982421875 1628.4830322265625 1616.1939697265625 1606.2349853515625 1599.60595703125 1590.656982421875 1573.218994140625 1553.489990234375 1529.5009765625 1505.4820556640625 1485.9229736328125 1463.9239501953125 1444.06494140625 1424.7969970703125 1407.0379638671875 1386.8189697265625 1364.3790283203125 1343.14794921875 1324.1510009765625 1306.8349609375 1282.4210205078125 1270.18994140625 1265.3809814453125 1274.123046875 1277.176025390625 1282.8289794921875 1300.8590087890625 1323.5999755859375 1345.4969482421875 1369.031982421875 1392.041015625 1415.501953125 1440.093017578125 1465.635986328125 1496.2359619140625 1524.8800048828125 1544.56201171875 1565.3819580078125 1583.0400390625 1602.79296875 1623.031005859375 1640.5159912109375 1675.4840087890625 1698.511962890625 1712.2110595703125 1720.635009765625 1724.0989990234375 1724.2010498046875 1722.8990478515625 1727.801025390625 1734.2760009765625 1742.4840087890625 1744.260009765625 1752.791015625 1767.1209716796875 1789.18994140625 1809.1309814453125 1818.9339599609375 1828.7130126953125 1831.884033203125 1838.8270263671875 1857.56103515625 1881.4599609375 1903.406982421875 1925.2230224609375 1938.7259521484375 1958.946044921875 1983.2039794921875 2007.946044921875 2034.95703125 2046.43701171875 2054.5048828125 2063.1630859375
-9999 -9999 -9999 -9999 -9999 -9999 -9999 -9999 -9999 -9999 -9999 -9999 -9999 -9999 -9999 -9999 -9999 -9999 -9999 -9999 -9999 -9999 -9999 -9999 -9999 -9999 -9999 -9999 -9999 -9999 -9999 -9999 -9999 -9999 -9999 -9999 -9999 -9999 -9999 -9999 -9999 -9999 -9999 -9999 -9999 -9999 -9999 -9999 -9999 -9999 -9999 -9999 -9999 -9999 -9999 -9999 -9999 -9999 -9999 -9999 -9999 -9999 -9999 -9999 -9999 -9999 -9999 -9999 -9999 -9999 -9999 -9999 -9999 -9999 -9999 -9999 -9999 -9999 -9999 -9999 -9999 -9999 -9999 -9999 -9999 -9999 -9999 -9999 -9999 -9999 -9999 -9999 -9999 -9999 -9999 -9999 2272.26611328125 2268.9970703125 2269.22900390625 2270.030029296875 2271.862060546875 2270.113037109375 2268.77490234375 2261.126953125 2278.528076171875 2302.158935546875 2319.56103515625 2336.60205078125 2328.533935546875 2310.6650390625 2287.4169921875 2272.077880859375 2262.780029296875 2253.48095703125 2241.572021484375 2232.633056640625 2224.074951171875 2213.926025390625 2200.427001953125 2194.968017578125 2187.2890625 2177.139892578125 2161.5009765625 2144.193115234375 2126.093994140625 2106.5849609375 2081.18603515625 2062.297119140625 2049.91796875 2038.6400146484375 2028.7110595703125 2013.9320068359375 2006.572998046875 1989.053955078125 1967.3050537109375 1951.0560302734375 1935.8380126953125 1919.489013671875 1903.06005859375 1894.541015625 1887.5419921875 1875.7030029296875 1863.93505859375 1856.7960205078125 1845.987060546875 1836.718017578125 1831.43896484375 1824.5699462890625 1819.6610107421875 1808.623046875 1799.9739990234375 1791.364990234375 1769.5660400390625 1741.70703125 1723.0880126953125 1707.4189453125 1684.6610107421875 1664.6619873046875 1644.7330322265625 1632.7440185546875 1623.5849609375 1611.615966796875 1603.8570556640625 1592.3890380859375 1573.02001953125 1557.81103515625 1533.241943359375 1508.1429443359375 1486.593994140625 1469.2750244140625 1451.406982421875 1432.18798828125 1417.8890380859375 1395.31005859375 1372.699951171875 1346.52099609375 1324.1600341796875 1302.6109619140625 1283.4420166015625 1269.323974609375 1264.593994140625 1271.81103515625 1278.4969482421875 1285.7139892578125 1298.89404296875 1318.404052734375 1339.7969970703125 1363.717041015625 1388.7130126953125 1412.739990234375 1439.468017578125 1463.366943359375 1488.844970703125 1515.18798828125 1539.3349609375 1557.2010498046875 1579.7030029296875 1595.4969482421875 1613.4189453125 1634.7099609375 1667.9940185546875 1689.6209716796875 1698.7459716796875 1698.6209716796875 1703.5179443359375 1704.906982421875 1705.3590087890625 1709.8480224609375 1714.761962890625 1718.4859619140625 1734.7750244140625 1750.240966796875 1773.4210205078125 1785.27294921875 1789.2640380859375 1802.3719482421875 1818.0909423828125 1833.886962890625 1851.822998046875 1867.1409912109375 1885.1910400390625 1907.5589599609375 1934.2550048828125 1956.29296875 1973.635009765625 1996.7459716796875 2017.89599609375 2038.0419921875 2051.510986328125 2060.4990234375 2071.7509765625
-9999 -9999 -9999 -9999 -9999 -9999 -9999 -9999 -9999 -9999 -9999 -9999 -9999 -9999 -9999 -9999 -9999 -9999 -9999 -9999 -9999 -9999 -9999 -9999 -9999 -9999 -9999 -9999 -9999 -9999 -9999 -9999 -9999 -9999 -9999 -9999 -9999 -9999 -9999 -9999 -9999 -9999 -9999 -9999 -9999 -9999 -9999 -9999 -9999 -9999 -9999 -9999 -9999 -9999 -9999 -9999 -9999 -9999 -9999 -9999 -9999 -9999 -9999 -9999 -9999 -9999 -9999 -9999 -9999 -9999 -9999 -9999 -9999 -9999 -9999 -9999 -9999 -9999 -9999 -9999 -9999 -9999 -9999 -9999 -9999 -9999 -9999 -9999 -9999 -9999 -9999 -9999 -9999 -9999 -9999 -9999 2269.366943359375 2268.22802734375 2265.590087890625 2267.8310546875 2266.4130859375 2267.714111328125 2267.486083984375 2261.126953125 2267.68896484375 2293.800048828125 2313.612060546875 2330.742919921875 2327.114990234375 2308.26611328125 2285.218017578125 2270.029052734375 2259.35107421875 2249.011962890625 2238.803955078125 2228.425048828125 2217.74609375 2207.757080078125 2201.087890625 2194.299072265625 2186.719970703125 2177.092041015625 2162.212890625 2144.404052734375 2122.945068359375 2096.68603515625 2074.9169921875 2061.368896484375 2046.0799560546875 2036.98095703125 2026.83203125 2011.7430419921875 2004.333984375 1984.2950439453125 1965.237060546875 1948.8079833984375 1933.4189453125 1917.1300048828125 1902.06103515625 1891.9620361328125 1882.81298828125 1873.135009765625 1864.115966796875 1856.1070556640625 1846.508056640625 1838.76904296875 1832.1099853515625 1825.3310546875 1819.1829833984375 1814.7340087890625 1797.2950439453125 1779.8160400390625 1760.8570556640625 1740.0679931640625 1717.4189453125 1699.031005859375 1681.4420166015625 1663.1429443359375 1648.6939697265625 1640.2349853515625 1629.0460205078125 1614.137939453125 1606.97900390625 1590.0699462890625 1571.3909912109375 1551.031982421875 1525.02294921875 1505.5140380859375 1483.2860107421875 1468.8370361328125 1453.66796875 1439.1590576171875 1421.0899658203125 1395.6109619140625 1372.2869873046875 1346.4320068359375 1322.928955078125 1301.5489501953125 1283.4930419921875 1270.5030517578125 1264.550048828125 1272.3819580078125 1281.0860595703125 1287.6820068359375 1295.3580322265625 1312.238037109375 1331.887939453125 1357.4000244140625 1377.1409912109375 1407.3189697265625 1441.1280517578125 1465.324951171875 1487.2750244140625 1508.906982421875 1528.259033203125 1547.2039794921875 1568.030029296875 1589.3299560546875 1608.8590087890625 1633.5789794921875 1660.3199462890625 1673.81103515625 1677.655029296875 1676.22705078125 1681.39599609375 1687.625 1686.1429443359375 1692.39794921875 1699.8790283203125 1711.5 1727.156982421875 1742.135986328125 1762.4520263671875 1788.0400390625 1807.2769775390625 1822.0140380859375 1840.467041015625 1853.56005859375 1867.990966796875 1889.5980224609375 1902.0679931640625 1919.9969482421875 1941.9019775390625 1960.77197265625 1982.4169921875 2000.6009521484375 2022.9510498046875 2036.3260498046875 2049.568115234375 2060.97607421875 2072.513916015625
-9999 -9999 -9999 -9999 -9999 -9999 -9999 -9999 -9999 -9999 -9999 -9999 -9999 -9999 -9999 -9999 -9999 -9999 -9999 -9999 -9999 -9999 -9999 -9999 -9999 -9999 -9999 -9999 -9999 -9999 -9999 -9999 -9999 -9999 -9999 -9999 -9999 -9999 -9999 -9999 -9999 -9999 -9999 -9999 -9999 -9999 -9999 -9999 -9999 -9999 -9999 -9999 -9999 -9999 -9999 -9999 -9999 -9999 -9999 -9999 -9999 -9999 -9999 -9999 -9999 -9999 -9999 -9999 -9999 -9999 -9999 -9999 -9999 -9999 -9999 -9999 -9999 -9999 -9999 -9999 -9999 -9999 -9999 -9999 -9999 -9999 -9999 -9999 -9999 -9999 -9999 -9999 -9999 -9999 -9999 -9999 2264.318115234375 2265.090087890625 2262.631103515625 2262.212890625 2262.77392578125 2263.966064453125 2264.51708984375 2263.759033203125 2260.3798828125 2293.991943359375 2309.153076171875 2322.47509765625 2319.6259765625 2303.597900390625 2287.388916015625 2265.930908203125 2257.491943359375 2245.904052734375 2235.304931640625 2224.365966796875 2215.6669921875 2205.26806640625 2199.759033203125 2194.930908203125 2186.85205078125 2175.843017578125 2161.23388671875 2142.705078125 2116.785888671875 2086.2880859375 2069.35888671875 2057.409912109375 2046.490966796875 2035.4720458984375 2026.383056640625 2012.0240478515625 2005.635986328125 1986.9169921875 1967.64794921875 1947.239013671875 1932.1700439453125 1916.5909423828125 1902.1419677734375 1890.654052734375 1881.364990234375 1871.89599609375 1861.5269775390625 1853.91796875 1846.718994140625 1838.3699951171875 1832.6319580078125 1826.802978515625 1819.7340087890625 1806.8349609375 1790.0360107421875 1773.5970458984375 1757.5279541015625 1742.5699462890625 1722.9610595703125 1705.31201171875 1687.6929931640625 1673.4139404296875 1653.9949951171875 1642.4560546875 1632.218017578125 1615.9189453125 1599.22998046875 1581.7110595703125 1564.842041015625 1544.5030517578125 1523.573974609375 1502.176025390625 1486.4169921875 1471.0679931640625 1458.6590576171875 1439 1413.240966796875 1391.1719970703125 1368.072998046875 1343.751953125 1322.77099609375 1303.2550048828125 1284.0350341796875 1272.81103515625 1264.550048828125 1268.258056640625 1278.6180419921875 1284.0699462890625 1293.4659423828125 1307.93505859375 1325.5369873046875 1346.3990478515625 1376.926025390625 1412.968994140625 1448.1429443359375 1459.7989501953125 1475.18603515625 1488.4840087890625 1503.4749755859375 1527.531005859375 1553.2850341796875 1580.68896484375 1607.2230224609375 1624.751953125 1641.2650146484375 1658.125 1660.8690185546875 1655.676025390625 1659.801025390625 1676.052978515625 1693.791015625 1708.8709716796875 1715.574951171875 1723.6949462890625 1739.48095703125 1758.8170166015625 1779.843994140625 1797.4580078125 1817.2060546875 1838.571044921875 1848.9959716796875 1868.531005859375 1884.281982421875 1900.2010498046875 1917.0579833984375 1929.68505859375 1939.77001953125 1959.5 1983.9169921875 2004.7569580078125 2018.281982421875 2030.5689697265625 2043.6319580078125 2054.008056640625 2065.7470703125
-9999 -9999 -9999 -9999 -9999 -9999 -9999 -9999 -9999 -9999 -9999 -9999 -9999 -9999 -9999 -9999 -9999 -9999 -9999 -9999 -9999 -9999 -9999 -9999 -9999 -9999 -9999 -9999 -9999 -9999 -9999 -9999 -9999 -9999 -9999 -9999 -9999 -9999 -9999 -9999 -9999 -9999 -9999 -9999 -9999 -9999 -9999 -9999 -9999 -9999 -9999 -9999 -9999 -9999 -9999 -9999 -9999 -9999 -9999 -9999 -9999 -9999 -9999 -9999 -9999 -9999 -9999 -9999 -9999 -9999 -9999 -9999 -9999 -9999 -9999 -9999 -9999 -9999 -9999 -9999 -9999 -9999 -9999 -9999 -9999 -9999 -9999 -9999 -9999 -9999 -9999 -9999 -9999 -9999 -9999 -9999 2261.958984375 2260.041015625 2258.912109375 2257.02392578125 2262.405029296875 2257.85693359375 2262.617919921875 2261.68994140625 2259.5810546875 2281.23291015625 2304.053955078125 2316.74609375 2314.076904296875 2302.51904296875 2289.93994140625 2268.741943359375 2252.462890625 2241.175048828125 2231.785888671875 2224.64697265625 2216.778076171875 2207.239990234375 2199.301025390625 2195.281982421875 2183.3330078125 2173.424072265625 2158.794921875 2138.76611328125 2107.587890625 2083.589111328125 2068.780029296875 2055.73095703125 2045.2020263671875 2032.5030517578125 2025.4639892578125 2016.85595703125 2004.68701171875 1988.93798828125 1969.3389892578125 1948.030029296875 1930.27099609375 1915.751953125 1900.0340576171875 1887.3050537109375 1878.0159912109375 1868.5970458984375 1859.657958984375 1850.509033203125 1843.98095703125 1837.072021484375 1832.10302734375 1826.7939453125 1819.344970703125 1802.5660400390625 1785.197021484375 1772.3990478515625 1759.77001953125 1747.720947265625 1730.612060546875 1715.2530517578125 1699.0439453125 1676.844970703125 1655.717041015625 1638.427978515625 1618.3289794921875 1602.52001953125 1589.791015625 1575.4320068359375 1556.363037109375 1539.385009765625 1522.4959716796875 1506.68701171875 1492.3380126953125 1476.18896484375 1455.510009765625 1432.3310546875 1407.4830322265625 1388.7039794921875 1363.2359619140625 1338.666015625 1320.7159423828125 1301.488037109375 1284.7359619140625 1273.7879638671875 1265.9940185546875 1263.448974609375 1278.22900390625 1286.2650146484375 1294.8160400390625 1309.177001953125 1319.31005859375 1343.5369873046875 1363.98095703125 1399.5570068359375 1442.279052734375 1457.43994140625 1474.2259521484375 1490.7960205078125 1508.301025390625 1533.2540283203125 1548.4949951171875 1568.2989501953125 1577.5849609375 1594.7060546875 1616.5880126953125 1628.97998046875 1636.5159912109375 1650.9229736328125 1666.08203125 1684.303955078125 1709.4129638671875 1723.4169921875 1732.8800048828125 1742.0279541015625 1749.8050537109375 1765.866943359375 1784.625 1804.573974609375 1827.7939453125 1841.4759521484375 1851.3719482421875 1871.0250244140625 1886.822021484375 1908.865966796875 1927.9189453125 1938.6820068359375 1953.780029296875 1967.218994140625 1989.614013671875 2008.2259521484375 2019.717041015625 2032.14501953125 2045.552978515625 2059.18701171875 2072.3349609375
-9999 -9999 -9999 -9999 -9999 -9999 -9999 -9999 -9999 -9999 -9999 -9999 -9999 -9999 -9999 -9999 -9999 -9999 -9999 -9999 -9999 -9999 -9999 -9999 -9999 -9999 -9999 -9999 -9999 -9999 -9999 -9999 -9999 -9999 -9999 -9999 -9999 -9999 -9999 -9999 -9999 -9999 -9999 -9999 -9999 -9999 -9999 -9999 -9999 -9999 -9999 -9999 -9999 -9999 -9999 -9999 -9999 -9999 -9999 -9999 -9999 -9999 -9999 -9999 -9999 -9999 -9999 -9999 -9999 -9999 -9999 -9999 -9999 -9999 -9999 -9999 -9999 -9999 -9999 -9999 -9999 -9999 -9999 -9999 -9999 -9999 -9999 -9999 -9999 -9999 -9999 -9999 -9999 -9999 -9999 -9999 -9999 2256.83203125 2257.123046875 2256.784912109375 2254.656005859375 2255.3779296875 2253.62890625 2257.631103515625 2256.201904296875 2270.864013671875 2297.364990234375 2310.26708984375 2309.60791015625 2300.639892578125 2288.10205078125 2270.89306640625 2249.425048828125 2236.805908203125 2226.47705078125 2223.26806640625 2216.580078125 2209.1708984375 2200.092041015625 2191.052978515625 2183.333984375 2171.8349609375 2156.22705078125 2131.968017578125 2103.069091796875 2082.52001953125 2070.591064453125 2056.422119140625 2041.1529541015625 2032.7950439453125 2027.0260009765625 2016.2869873046875 2000.3079833984375 1985.3389892578125 1968.1800537109375 1947.8609619140625 1929.4129638671875 1914.0040283203125 1895.4449462890625 1882.0360107421875 1875.5970458984375 1866.927978515625 1857.428955078125 1850.7010498046875 1844.1719970703125 1837.7130126953125 1831.2939453125 1824.344970703125 1816.7860107421875 1803.447021484375 1785.759033203125 1774.6300048828125 1761.1810302734375 1750.9620361328125 1736.8929443359375 1719.9639892578125 1695.0849609375 1672.5169677734375 1656.1080322265625 1634.8289794921875 1616.3900146484375 1597.9610595703125 1581.7120361328125 1568.2230224609375 1553.18505859375 1535.4659423828125 1520.5169677734375 1506.008056640625 1491.8289794921875 1471.0899658203125 1446.9010009765625 1423.532958984375 1406.7440185546875 1384.094970703125 1362.001953125 1335.8690185546875 1314.2249755859375 1294.8270263671875 1281.219970703125 1269.9119873046875 1261.60400390625 1265.657958984375 1276.0589599609375 1283.593994140625 1295.4169921875 1306.489013671875 1323.6529541015625 1348.10205078125 1379.791015625 1421.3919677734375 1445.7139892578125 1462.616943359375 1490.968017578125 1512.4969482421875 1526.031982421875 1540.2640380859375 1561.1719970703125 1582.6839599609375 1604.1180419921875 1620.2760009765625 1616.7569580078125 1624.33203125 1648.905029296875 1666.97802734375 1683.8809814453125 1697.72705078125 1711.9410400390625 1732.2650146484375 1743.177001953125 1757.1009521484375 1765.654052734375 1784.3740234375 1803.2530517578125 1823.655029296875 1830.487060546875 1837.8809814453125 1850.488037109375 1865.6319580078125 1883.9930419921875 1907.70703125 1932.68994140625 1944.1689453125 1961.1199951171875 1978.510986328125 1996.9560546875 2009.1639404296875 2018.720947265625 2031.970947265625 2048.7451171875 2065.22412109375 2082.19189453125
-9999 -9999 -9999 -9999 -9999 -9999 -9999 -9999 -9999 -9999 -9999 -9999 -9999 -9999 -9999 -9999 -9999 -9999 -9999 -9999 -9999 -9999 -9999 -9999 -9999 -9999 -9999 -9999 -9999 -9999 -9999 -9999 -9999 -9999 -9999 -9999 -9999 -9999 -9999 -9999 -9999 -9999 -9999 -9999 -9999 -9999 -9999 -9999 -9999 -9999 -9999 -9999 -9999 -9999 -9999 -9999 -9999 -9999 -9999 -9999 -9999 -9999 -9999 -9999 -9999 -9999 -9999 -9999 -9999 -9999 -9999 -9999 -9999 -9999 -9999 -9999 -9999 -9999 -9999 -9999 -9999 -9999 -9999 -9999 -9999 -9999 -9999 -9999 -9999 -9999 -9999 -9999 -9999 -9999 -9999 -9999 -9999 2261.06298828125 2255.513916015625 2254.055908203125 2252.60693359375 2252.118896484375 2253.801025390625 2255.02197265625 2257.243896484375 2263.4951171875 2287.287109375 2304.818115234375 2305.6201171875 2298.591064453125 2284.9130859375 2272.6640625 2248.5458984375 2230.677001953125 2224.87890625 2221.5400390625 2216.81103515625 2210.94189453125 2201.383056640625 2190.64404296875 2181.514892578125 2168.10693359375 2154.6279296875 2127.09912109375 2100 2084.87109375 2072.85205078125 2057.083984375 2046.074951171875 2035.7559814453125 2024.4169921875 2013.218017578125 1997.448974609375 1982.239990234375 1965.2120361328125 1948.6829833984375 1929.343994140625 1911.7249755859375 1892.7960205078125 1879.7669677734375 1871.738037109375 1865.6800537109375 1858.531005859375 1849.6319580078125 1843.7030029296875 1836.7139892578125 1829.2249755859375 1821.666015625 1814.498046875 1806.2889404296875 1793.8399658203125 1777.4610595703125 1763.60205078125 1753.343017578125 1738.1839599609375 1721.4560546875 1694.1070556640625 1672.407958984375 1651.8389892578125 1629.199951171875 1605.6510009765625 1586.251953125 1570.60400390625 1558.9749755859375 1542.446044921875 1527.7969970703125 1516.137939453125 1504.5989990234375 1490.52001953125 1469.85205078125 1444.4530029296875 1418.2340087890625 1398.6650390625 1377.365966796875 1354.635986328125 1334.905029296875 1310.6619873046875 1291.3089599609375 1274.6650390625 1261.77001953125 1256.2049560546875 1264.1090087890625 1270.7740478515625 1281.008056640625 1292.3360595703125 1307.011962890625 1325.3280029296875 1348.60498046875 1374.1219482421875 1420.22900390625 1443.9720458984375 1462.491943359375 1487.760009765625 1514.7550048828125 1540.0560302734375 1554.529052734375 1571.5980224609375 1592.0140380859375 1611.97900390625 1634.612060546875 1644.7900390625 1648.1939697265625 1661.68505859375 1676.9200439453125 1686.01904296875 1704.06396484375 1720.157958984375 1736.362060546875 1747.6190185546875 1765.7249755859375 1782.844970703125 1798.3709716796875 1816.166015625 1832.991943359375 1840.6669921875 1841.635009765625 1853.7130126953125 1869.7459716796875 1890.592041015625 1912.4449462890625 1931.219970703125 1947.56494140625 1963.532958984375 1982.2359619140625 2002.7889404296875 2021.5179443359375 2022.239990234375 2033.1800537109375 2050.114990234375 2066.862060546875 2085.37890625
-9999 -9999 -9999 -9999 -9999 -9999 -9999 -9999 -9999 -9999 -9999 -9999 -9999 -9999 -9999 -9999 -9999 -9999 -9999 -9999 -9999 -9999 -9999 -9999 -9999 -9999 -9999 -9999 -9999 -9999 -9999 -9999 -9999 -9999 -9999 -9999 -9999 -9999 -9999 -9999 -9999 -9999 -9999 -9999 -9999 -9999 -9999 -9999 -9999 -9999 -9999 -9999 -9999 -9999 -9999 -9999 -9999 -9999 -9999 -9999 -9999 -9999 -9999 -9999 -9999 -9999 -9999 -9999 -9999 -9999 -9999 -9999 -9999 -9999 -9999 -9999 -9999 -9999 -9999 -9999 -9999 -9999 -9999 -9999 -9999 -9999 -9999 -9999 -9999 -9999 -9999 -9999 -9999 -9999 -9999 -9999 -9999 -9999 2257.595947265625 2254.43701171875 2253.118896484375 2249.65087890625 2249.65087890625 2254.10302734375 2253.445068359375 2253.535888671875 2278.968017578125 2298.68896484375 2300.450927734375 2294.6220703125 2283.14404296875 2272.26611328125 2247.757080078125 2231.72900390625 2223.93994140625 2219.60107421875 2216.302001953125 2210.492919921875 2201.833984375 2189.736083984375 2179.326904296875 2168.347900390625 2151.0791015625 2125.840087890625 2097.881103515625 2086.23291015625 2074.243896484375 2061.81494140625 2048.256103515625 2034.3370361328125 2023.137939453125 2011.928955078125 1996.470947265625 1980.4520263671875 1964.873046875 1947.404052734375 1929.7149658203125 1911.0260009765625 1892.3070068359375 1876.947998046875 1869.510009765625 1863.9210205078125 1856.31201171875 1847.52294921875 1839.2340087890625 1832.574951171875 1824.64599609375 1818.748046875 1812.1689453125 1807.550048828125 1797.23095703125 1781.9320068359375 1766.54296875 1756.9840087890625 1742.696044921875 1719.64697265625 1697.407958984375 1677.1390380859375 1655.5400390625 1632.1810302734375 1608.4620361328125 1579.4940185546875 1563.9449462890625 1551.3260498046875 1537.3170166015625 1523.3480224609375 1510.72900390625 1503.3399658203125 1486.4520263671875 1466.29296875 1438.4139404296875 1416.18505859375 1394.365966796875 1368.72705078125 1345.458984375 1325.7159423828125 1306.16796875 1287.1829833984375 1268.6180419921875 1256.6839599609375 1254.89599609375 1259.33203125 1264.656005859375 1273.7120361328125 1291.9139404296875 1312.51904296875 1331.4510498046875 1353.81201171875 1376.3370361328125 1424.427978515625 1444.43701171875 1463.47705078125 1488.051025390625 1517.7540283203125 1541.89501953125 1563.2430419921875 1582.4010009765625 1602.073974609375 1618.3990478515625 1630.5469970703125 1636.93603515625 1644.81103515625 1656.5550537109375 1672.883056640625 1694.8310546875 1709.654052734375 1728.81396484375 1741.8499755859375 1751.2449951171875 1771.9239501953125 1787.501953125 1807.072021484375 1827.074951171875 1839.928955078125 1846.35498046875 1854.0450439453125 1869.989990234375 1884.446044921875 1897.762939453125 1914.2969970703125 1930.488037109375 1945.947021484375 1965.8709716796875 1993.501953125 2008.887939453125 2025.1280517578125 2032.9449462890625 2045.0360107421875 2050.759033203125 2067.922119140625 2087.7958984375
